# .PCD v0.7 - Point Cloud Data file format
VERSION 0.7
FIELDS x y z
SIZE 4 4 4
TYPE F F F
COUNT 1 1 1
WIDTH 726
HEIGHT 1
VIEWPOINT 0 0 0 1 0 0 0
POINTS 726
DATA ascii
1.9410886 0.37104219 -1.0977794
0.27383968 0.37595761 -1.0654502
0.29267654 0.37801674 -1.0639411
0.2732504 0.38551053 -1.063251
0.31293333 0.38169986 -1.0665925
0.29048681 0.38559976 -1.0563047
0.30867392 0.38702041 -1.0526606
0.34784874 0.38254258 -1.0527744
0.36736697 0.38523635 -1.0516186
0.32432127 0.37528643 -1.0409558
0.32566473 0.38710183 -1.0450906
0.38029081 0.37119046 -1.0327026
0.40036482 0.37445962 -1.032661
0.44175932 0.37120053 -1.0333172
0.34280065 0.38751283 -1.0381137
0.36076826 0.38892075 -1.0334888
0.39988896 0.38442373 -1.0314832
0.37713289 0.37848392 -1.0244759
0.41908026 0.37645447 -1.0287139
0.43701848 0.37780932 -1.0226691
0.46021426 0.37284228 -1.0277165
0.41599345 0.38417265 -1.0214418
0.48056969 0.38653088 -1.0257596
0.37868783 0.39032406 -1.0285267
0.45448324 0.37884128 -1.0154263
0.47653469 0.37293312 -1.0174867
1.9147251 0.37539718 -0.91186875
0.43253836 0.39572686 -0.88899964
1.2012266 0.37541318 -0.86691886
0.32066026 0.39796951 -0.83538532
3.0404079 0.37429926 -0.82632166
0.22398165 0.38272476 -0.8243736
0.27605665 0.38322383 -0.80074561
1.5695773 0.37989494 -0.78526074
0.37386796 0.39572695 -0.77385247
0.35426286 0.3843039 -0.73537529
0.34002662 0.39804098 -0.73760366
0.34683737 0.39304507 -0.72080195
0.34737942 0.40192872 -0.72186577
0.34140515 0.40359753 -0.71014065
0.32326624 0.38739371 -0.70323974
0.3141827 0.39281958 -0.68461573
0.3298068 0.39860168 -0.68737757
1.4369552 0.39228177 -0.68908107
2.8820536 0.38085261 -0.67549729
0.32308495 0.39882365 -0.67418522
0.30422819 0.38873136 -0.66420597
0.31479096 0.39690784 -0.65790737
0.29621482 0.40777516 -0.59683174
0.31277138 0.39097285 -0.58070707
1.2045864 0.39691886 -0.58072567
0.29927853 0.40010539 -0.57927066
0.31036103 0.40287894 -0.57653219
0.30529732 0.40404189 -0.5677616
0.31749976 0.40094316 -0.5669809
5.2383032 0.36690661 -0.55527163
0.27360028 0.39240023 -0.55429989
1.1956753 0.39180934 -0.55065209
0.31367913 0.39373001 -0.54015368
0.31016898 0.3967323 -0.5345363
0.31109938 0.4050937 -0.53602523
0.32111123 0.40739 -0.53220809
0.31878468 0.39739469 -0.52862555
1.1859545 0.39872044 -0.52099073
0.30402181 0.40357903 -0.52469879
0.31473759 0.40700111 -0.52239352
0.75924534 0.39434588 -0.51756847
0.3129077 0.41202945 -0.51957577
0.31565353 0.39526904 -0.50528228
0.32189405 0.39726451 -0.49657419
1.1865183 0.39661583 -0.49624181
0.31859937 0.40756875 -0.49186891
0.3214491 0.40382534 -0.49593872
1.1773628 0.40584022 -0.49254274
0.31103826 0.40551853 -0.48107052
0.32472277 0.39499456 -0.47499156
3.3051341 0.39535958 -0.47076908
0.32436705 0.4052951 -0.4772788
0.35370263 0.40032497 -0.47175795
0.69337809 0.40583682 -0.47479376
1.1926646 0.40833315 -0.47394764
1.1812096 0.3928951 -0.46955043
0.29280487 0.39670342 -0.45503053
0.32979876 0.39586881 -0.45758367
0.36380708 0.39656076 -0.45247412
0.31695798 0.4097299 -0.45655602
0.33133847 0.4045445 -0.4595544
0.36495528 0.40474111 -0.45379496
0.32624277 0.41270408 -0.4530322
0.34276369 0.40928587 -0.44296187
0.35576397 0.40572768 -0.44322157
0.36891878 0.40903667 -0.44316733
1.1869237 0.40447366 -0.44739583
0.32126158 0.39921191 -0.43169659
0.38694951 0.39995351 -0.43306825
0.37432009 0.40437803 -0.43432006
0.38412389 0.40424129 -0.43014222
0.55811775 0.4109754 -0.43194661
0.62746412 0.41076156 -0.43198872
0.65093637 0.41253111 -0.43059653
0.68363452 0.4104766 -0.43394578
0.53270763 0.3981021 -0.42850566
0.57110506 0.39979625 -0.42570299
0.59948283 0.39783454 -0.42951998
0.32604352 0.40425861 -0.42303553
0.33177665 0.40393245 -0.42986801
0.34209058 0.40489775 -0.42749211
0.35299775 0.4064064 -0.42548522
0.36592251 0.40638247 -0.42531478
0.37784088 0.40508777 -0.42363596
0.39538527 0.40543538 -0.42720509
0.53365582 0.40633315 -0.42922017
0.56993544 0.40680543 -0.42488402
0.5868215 0.40578207 -0.42097977
0.59389704 0.40231505 -0.42575228
0.5282737 0.41018051 -0.42516446
0.55049896 0.41358766 -0.42641124
0.56870902 0.41381729 -0.4240253
0.61798483 0.41319034 -0.42583278
0.66922158 0.41096464 -0.42528564
0.32802883 0.39950243 -0.41131592
0.39949828 0.39996034 -0.41705063
0.45525271 0.39865351 -0.41092783
0.34374964 0.4033545 -0.41521418
0.35978609 0.40698543 -0.41873425
0.37577021 0.40694547 -0.41447651
0.38752559 0.40847996 -0.41934538
0.39777192 0.40535197 -0.41538352
0.40800002 0.40215677 -0.41115612
0.42807844 0.40041718 -0.41555446
0.44296134 0.40428689 -0.41458306
0.49556029 0.40218937 -0.4148789
0.50973767 0.40443859 -0.41119656
0.54879802 0.40822598 -0.41008344
0.57461745 0.40584189 -0.41274804
0.62992632 0.40850633 -0.41746801
0.64715016 0.40680429 -0.41202375
0.57120073 0.41139916 -0.41044345
0.60256702 0.41175655 -0.41582033
0.62413913 0.4131583 -0.41385177
3.2436397 0.38814512 -0.40375301
0.33402672 0.39949581 -0.40441579
0.34484267 0.3980557 -0.40270939
0.34757721 0.40780759 -0.40564185
0.36250609 0.40349022 -0.40775636
0.38948718 0.4044992 -0.40738302
0.39960849 0.40843824 -0.40333086
0.40017101 0.40197825 -0.40385544
0.41430229 0.40594238 -0.40315032
0.4348385 0.40812895 -0.40752199
0.44669962 0.40239388 -0.40375096
0.46450073 0.40124306 -0.40446469
0.48024997 0.40165257 -0.40291718
0.4979431 0.40688008 -0.40230873
0.5250324 0.40731841 -0.40790868
0.57981318 0.40533641 -0.40104383
0.63670003 0.40891671 -0.40574467
0.56122166 0.41254932 -0.40371248
0.60780013 0.41125506 -0.40364203
0.6647352 0.41334009 -0.40628505
0.37594065 0.39831206 -0.3943013
0.43108994 0.39992478 -0.39065287
0.31801733 0.40147588 -0.39979902
0.3232615 0.40417206 -0.39245978
0.33497089 0.40080616 -0.39212322
0.35523707 0.4065755 -0.39357188
0.36383104 0.40565121 -0.39565083
0.37538606 0.40460086 -0.39376572
0.39586574 0.40566733 -0.39313012
0.41977087 0.4021039 -0.3944239
0.43310204 0.40868527 -0.3923412
0.45547628 0.40475553 -0.39715683
0.46511662 0.40428427 -0.3910937
0.47166651 0.40225449 -0.39621106
0.50232649 0.40582091 -0.3914119
0.53257638 0.40470222 -0.39872491
0.5885427 0.40716681 -0.39160866
0.62321317 0.40902877 -0.39764097
0.33535135 0.41486269 -0.39253122
0.54694062 0.41056377 -0.3940798
0.57783782 0.41183263 -0.39976102
0.61661685 0.41305065 -0.39367747
0.64637995 0.41110012 -0.39568764
0.33221433 0.40446946 -0.38916719
0.34007943 0.40017223 -0.38453284
0.36779755 0.40385059 -0.38643759
0.38225091 0.40572223 -0.38714468
0.39446908 0.40511906 -0.38529244
0.41050413 0.40779006 -0.38636845
0.42105779 0.4052169 -0.38223487
0.47640377 0.40506488 -0.38607767
0.51478779 0.40334451 -0.38626924
0.53416789 0.4093067 -0.38546449
0.56187463 0.40910432 -0.3893944
0.596385 0.40851611 -0.38152099
0.62656701 0.40761143 -0.38424864
0.33372182 0.41662261 -0.38430506
0.34321868 0.41727936 -0.38778365
0.35173792 0.41351321 -0.38355771
0.379857 0.41026905 -0.38491231
0.55256587 0.41050482 -0.38334924
0.6504463 0.41014826 -0.38236472
0.33342129 0.3995603 -0.37763813
0.34786788 0.40253785 -0.3796877
0.35675573 0.40607637 -0.37577462
0.37996903 0.4049218 -0.37223652
0.38599366 0.40393001 -0.37766114
0.39568698 0.40793464 -0.3734881
0.40060779 0.40563947 -0.37776569
0.42493379 0.40725809 -0.37242401
0.43160197 0.4025616 -0.3778238
0.44223568 0.40691406 -0.37321717
0.45072111 0.40690431 -0.37984669
0.46677873 0.40828723 -0.37882468
0.4965044 0.40467978 -0.37346709
0.51164925 0.40813413 -0.37027544
0.52217007 0.40831724 -0.37737185
0.55431569 0.40797225 -0.37022126
0.56939328 0.40271145 -0.37964278
0.63044715 0.40663621 -0.37127897
1.1950368 0.40136227 -0.37851614
0.34769765 0.41599259 -0.37951744
0.54327989 0.41174018 -0.37731886
0.56889892 0.41001114 -0.37933388
0.57726544 0.41187593 -0.37003279
0.58756876 0.41075635 -0.37622362
0.61838001 0.41067877 -0.37952188
1.1975026 0.41395774 -0.37927002
0.46056467 0.39908302 -0.36107016
1.2292016 0.3978821 -0.36487153
0.35625625 0.40669045 -0.36290425
0.37336379 0.40520576 -0.36628914
0.39539325 0.40263769 -0.36069977
0.40474191 0.40442878 -0.36854425
0.42986515 0.40340942 -0.36355224
0.45143989 0.40302533 -0.36726603
0.46205765 0.40730494 -0.36215487
0.47271279 0.40152013 -0.36989629
0.48280284 0.40515572 -0.36387312
0.51759434 0.40856761 -0.36063844
0.52028859 0.40316781 -0.36238813
0.5412758 0.40666217 -0.362073
0.56251448 0.4098599 -0.36116952
0.58907431 0.40829203 -0.3626022
0.59184301 0.40234214 -0.36420071
1.2289521 0.40985447 -0.36480001
0.34917805 0.41161776 -0.36845696
0.35731503 0.41462103 -0.3638916
0.48015174 0.41028506 -0.3620168
0.50335038 0.41301244 -0.36467785
0.61625022 0.41399619 -0.36340949
0.62606829 0.411989 -0.36885175
0.97446591 0.39741763 -0.35018608
0.36441016 0.40295595 -0.35822725
0.38455868 0.40256053 -0.35160848
0.42017496 0.40192533 -0.35598141
0.43235055 0.40109158 -0.35288119
0.46715912 0.4072164 -0.35291928
0.52245259 0.40105209 -0.35031098
0.54858088 0.40807253 -0.35279736
0.98041356 0.40973589 -0.35223404
1.0528479 0.40249333 -0.35599679
0.37966663 0.41651106 -0.3595618
0.38787505 0.41602272 -0.35439125
0.58171612 0.41130492 -0.35835397
0.60260648 0.41345033 -0.35584667
0.49555337 0.39983168 -0.34632489
0.39295268 0.40233734 -0.34652624
0.41058034 0.40711036 -0.34848529
0.42588675 0.40933686 -0.34801036
0.43737626 0.40796825 -0.34422278
0.47755581 0.40428233 -0.34727913
0.51611257 0.4038392 -0.34634927
0.55525875 0.40542543 -0.34307882
1.2256299 0.40730798 -0.34005341
0.40992156 0.4134064 -0.3479706
0.43206346 0.41734692 -0.34036282
0.51349849 0.4165245 -0.34471583
0.52585495 0.39993984 -0.33914226
0.42943475 0.40808329 -0.33845294
0.4441365 0.402574 -0.33679867
0.45627299 0.4015851 -0.33292368
0.46514863 0.40167022 -0.3389104
0.47815344 0.40095472 -0.33502522
0.50470978 0.40286615 -0.33922404
0.51890725 0.40954649 -0.33496764
0.52533609 0.40682474 -0.33883047
0.53949732 0.40592137 -0.33397895
0.44758111 0.41238916 -0.3392106
0.52120101 0.41852465 -0.33634588
0.54115754 0.4144339 -0.33493748
1.214386 0.40254316 -0.31366691
1.2140919 0.4143033 -0.3135936
1.2251049 0.40438029 -0.29296055
0.31203437 0.40938869 -0.28099987
1.2107818 0.41193053 -0.28965381
1.2242131 0.40289649 -0.26957056
1.2248546 0.41494069 -0.2697069
1.2436656 0.40746325 -0.25033051
1.2433299 0.41935748 -0.25026524
1.6660408 0.40217018 -0.24040955
1.2792395 0.40455368 -0.23337862
1.2770416 0.41615114 -0.23299105
1.8092942 0.39899689 -0.22763751
1.5563637 0.40740812 -0.22499543
1.468433 0.40056625 -0.21263759
0.31782135 0.41588199 -0.21414304
0.31775486 0.41557261 -0.19795084
0.32015744 0.41874072 -0.18355794
3.195909 0.40956587 -0.16984561
0.30797401 0.40901095 -0.15542202
0.30900997 0.42511576 -0.14170544
-0.2898536 0.43165943 -0.12164435
3.3326004 0.39545652 -0.11794745
0.29007825 0.41761807 -0.10184254
-0.26583073 0.42033243 -0.10005231
0.27885532 0.42304996 -0.098411359
-0.24767247 0.41621643 -0.083208874
0.28655684 0.42586643 -0.085374072
0.30859199 0.42947561 -0.087827109
0.28429544 0.41666073 -0.072760686
0.23936681 0.42506179 -0.075785004
3.4763191 0.41042465 -0.061464734
0.23080285 0.42292416 -0.063407831
0.28948367 0.42163038 -0.064856328
0.30756965 0.42318401 -0.062046994
0.292059 0.42341435 -0.056311667
0.2941961 0.42443448 -0.04462678
-0.20886147 0.43199447 -0.041188527
-0.1945097 0.42068192 -0.037610229
-0.20371345 0.43034282 -0.039904982
0.24123067 0.41726011 -0.020007534
0.2539129 0.41568553 -0.026136508
-0.1640062 0.42842141 -0.023293173
0.23386092 0.42051405 -0.024382187
0.28906459 0.42252657 -0.023352405
0.29236996 0.43382588 -0.023583541
-0.24499449 0.42672318 -0.013992641
-0.22145922 0.42940566 -0.012346896
-0.21613857 0.42784688 -0.01197484
-0.20753443 0.42805463 -0.01137318
-0.14218767 0.42859766 -0.013720384
0.306059 0.42340839 -0.01839499
-0.26343644 0.43622008 -0.01337027
-0.25461546 0.43380052 -0.010988712
-0.24262421 0.43395478 -0.012088012
-0.2332577 0.43404433 -0.013171925
-0.22682332 0.43090025 -0.01272199
-0.21569838 0.43497077 -0.011944059
-0.20459199 0.4347288 -0.011167425
-0.18804042 0.43137184 -0.010010025
-0.15568841 0.43518573 -0.01864502
0.26548269 0.43148777 -0.010841338
-0.13576132 0.41805112 -0.0015843645
0.27476627 0.41637501 -0.0055814218
-0.25456229 0.42620385 -0.0073190336
-0.24295968 0.42659971 -0.0069138617
-0.23410875 0.42736459 -0.0082563292
-0.21534806 0.42574683 -0.0044923262
-0.20772357 0.42770773 -0.0042594327
-0.1954844 0.42459786 -0.0026268347
-0.17198075 0.42699903 -0.0044352226
-0.16705041 0.42924133 -0.0021305175
-0.14209758 0.4252615 -0.0033916794
-0.13806254 0.42765486 -0.0057035652
-0.12732117 0.42669344 -0.0067649931
-0.11395525 0.42681122 -0.0020946842
-0.10273551 0.42846572 -0.0010078968
0.14279757 0.42713484 -0.0065570781
0.18408783 0.42248663 -0.0039986232
0.19464327 0.42721438 -0.0083675701
0.27445391 0.42280409 -0.0055759689
0.30374089 0.42690593 -0.0060871751
-0.26166242 0.43298271 -0.0037819762
-0.25320727 0.43496823 -0.0036343911
-0.24266607 0.43339917 -0.0034503934
-0.23420639 0.43497735 -0.0059367344
-0.22472315 0.43451953 -0.0067826021
-0.21625388 0.43547314 -0.0074642287
-0.2061864 0.43580994 -0.0065292921
-0.19666702 0.43542096 -0.0053201667
-0.18661371 0.43445319 -0.0061619864
-0.17652421 0.43453518 -0.0055025471
-0.16388388 0.43546927 -0.0047540492
-0.15656182 0.43519032 -0.0038903598
-0.14529064 0.43421239 -0.0054212906
-0.13506658 0.43655136 -0.0051797898
-0.12547426 0.43416181 -0.00361159
-0.11496256 0.43327016 -0.0024825279
-0.25219601 0.41889596 0
-0.054963663 0.41741839 0.0041208761
3.4768486 0.4104315 0
-0.26335877 0.42821527 0.0019155039
-0.25298399 0.42371589 0.0036643068
-0.24541943 0.42660105 0.0034627109
-0.23413727 0.42722988 0.0043456047
-0.2239776 0.42789143 0.0041903476
-0.21438913 0.42654082 0.0019636923
-0.20590448 0.42697901 0.003716151
-0.19517899 0.42432728 0.0059721377
-0.18331023 0.42548409 0.0060791122
-0.17402263 0.42713338 0.0050855456
-0.1654156 0.4259584 0.00628962
-0.15372889 0.42578739 0.0032971152
-0.14412566 0.42760992 0.0046017761
-0.13425578 0.42655236 0.0044896784
-0.1264724 0.42611948 0.0056628562
-0.11900119 0.42595673 0.0056959479
-0.10400105 0.4259499 0.0057607479
-0.094185315 0.42741615 0.0047023641
-0.084905289 0.42604819 0.0062332605
-0.074934497 0.42626861 0.006979459
-0.0653992 0.42456466 0.0059979269
-0.058529001 0.42713341 0.0056683328
0.15471251 0.42792693 0
0.17500487 0.42458767 0.0018872012
-0.26498771 0.43429556 0.0057905978
-0.25359771 0.43377846 0.0045727128
-0.24181598 0.43211681 0.0051565692
-0.23793785 0.43590999 0.0022482181
-0.22555977 0.43396178 0.0058814883
-0.21652453 0.43791592 0.0059658345
-0.20505472 0.43562093 0.0022233729
-0.19445756 0.43516362 0.0034739661
-0.18449447 0.4364382 0.0040792106
-0.174475 0.43367711 0.0059285001
-0.16469727 0.43466073 0.0044905576
-0.1548122 0.43514922 0.0045144456
-0.14516705 0.43616951 0.0045920853
-0.13547933 0.43517339 0.0057325
-0.12559131 0.43583149 0.0040235161
-0.11584161 0.43494031 0.0043048211
-0.10602379 0.4354634 0.0038091291
-0.096690297 0.43386847 0.005525636
-0.085582085 0.43523049 0.0050491942
-0.075186223 0.43493229 0.0059890952
-0.065362178 0.43410158 0.0072753071
-0.059600424 0.43310308 0.0043290425
0.1217673 0.43124852 0.0029108145
0.15237163 0.4320263 0.0068914122
0.2965982 0.43503201 0
-0.21122634 0.41914335 0.011631344
-0.20643304 0.41987643 0.01986267
-0.12945007 0.41901797 0.019763105
-0.060801312 0.41871482 0.016762599
-0.24354278 0.42542559 0.011552486
-0.23502581 0.42702109 0.014408791
-0.2235705 0.42582819 0.015631003
-0.21550134 0.42692685 0.0133963
-0.20397155 0.42502615 0.013366118
-0.19383736 0.42558429 0.015191108
-0.1877777 0.42411673 0.017572081
-0.17555027 0.42613724 0.016067514
-0.16642891 0.42505914 0.012788602
-0.15431292 0.42592749 0.0164323
-0.14400414 0.42597169 0.012202024
-0.13304877 0.42555118 0.015051487
-0.12547778 0.42724159 0.015080506
-0.11614773 0.42389128 0.01517763
-0.10465596 0.42380628 0.014734325
-0.09466631 0.42638221 0.014140273
-0.084467158 0.42620787 0.015046114
-0.075415574 0.4259845 0.014774323
-0.065534353 0.42569667 0.014595309
-0.059335705 0.42085323 0.010423134
-0.25629896 0.43269524 0.011076942
-0.24395798 0.4358885 0.010430178
-0.23120256 0.43061566 0.013028217
-0.2242647 0.43533096 0.018867388
-0.2161309 0.43241081 0.015753673
-0.20220661 0.43722296 0.011924452
-0.19577324 0.43502116 0.014548905
-0.18593754 0.43368277 0.015480917
-0.17484473 0.4340471 0.015219199
-0.16421811 0.43341759 0.013934481
-0.15326416 0.43381688 0.015697578
-0.14601296 0.43433771 0.015187918
-0.13542353 0.43315408 0.014899901
-0.12459776 0.43550891 0.014593658
-0.11507678 0.4346191 0.015449688
-0.1037914 0.43511793 0.015898306
-0.094471067 0.43410844 0.015107458
-0.085682943 0.43518302 0.014330155
-0.075217456 0.43387631 0.014750262
-0.066157706 0.43429995 0.014234694
0.11405741 0.43417686 0.017165963
0.13524085 0.43419009 0.018918168
0.16724509 0.43010354 0.011120061
-0.16351573 0.41948384 0.025400314
-0.21309635 0.42413965 0.020680821
-0.19418326 0.42665291 0.025049463
-0.18485388 0.42820963 0.022180319
-0.17387164 0.4279207 0.02401129
-0.16529882 0.42513797 0.024779167
-0.1548373 0.42645684 0.02379754
-0.14379029 0.42510781 0.026505783
-0.13470207 0.42685026 0.025978945
-0.12493059 0.42374498 0.024824305
-0.11686611 0.42835829 0.024392834
-0.10778226 0.42628607 0.026115661
-0.092802256 0.42683494 0.024325164
-0.085438646 0.42532772 0.023692997
-0.073940814 0.42531753 0.025153626
-0.065490335 0.42391017 0.024819126
-0.21122654 0.43661702 0.020451237
-0.20401698 0.43274453 0.024540275
-0.19497246 0.43441734 0.022916906
-0.18310295 0.43280232 0.026380777
-0.17381974 0.43231681 0.02410244
-0.1651186 0.43358237 0.027997836
-0.15002307 0.43215734 0.020575127
-0.14489852 0.43159756 0.023731394
-0.13396542 0.43307239 0.024277609
-0.12285059 0.4336783 0.024139607
-0.11543671 0.43387851 0.024542522
-0.10406686 0.43351933 0.024155451
-0.094754234 0.43494892 0.02311063
-0.084212475 0.43289787 0.02531218
-0.076068029 0.43197694 0.022898614
-0.067019172 0.43180498 0.022220876
0.11054672 0.43387306 0.021799119
0.12515137 0.43381172 0.024849441
0.15170661 0.43347663 0.027583763
-0.1170915 0.4191561 0.030450741
-0.10406165 0.41914243 0.031027557
-0.15776043 0.42823771 0.030624922
-0.14261921 0.42655367 0.030446339
-0.13543119 0.42564726 0.031982131
-0.1271473 0.42660883 0.03268072
-0.11447912 0.42698598 0.031542711
-0.094104193 0.42615226 0.032616179
-0.085511804 0.42570707 0.033720639
-0.076179124 0.42704806 0.033466808
-0.063892782 0.42365509 0.037174929
-0.059205506 0.42018449 0.038141143
-0.18523802 0.43229568 0.030017529
-0.17953895 0.43899685 0.031327035
-0.15358394 0.43464017 0.032687545
-0.14348866 0.43583491 0.032716528
-0.13569616 0.43335256 0.032058209
-0.12698975 0.43336973 0.032600626
-0.11295424 0.43157023 0.034489129
-0.10558702 0.43551975 0.032585327
-0.095385335 0.43555531 0.034138046
-0.084538735 0.43208155 0.034404691
0.15211245 0.43282014 0.033464752
0.16379303 0.43640643 0.037615418
-0.064097553 0.42510471 0.04083813
-0.054812208 0.42815179 0.046663221
0.14477168 0.42958534 0.040128194
0.18767235 0.42883843 0.049247015
0.19483155 0.42744136 0.043595802
0.21813491 0.42796558 0.04627724
-0.073312484 0.43502152 0.042190902
-0.062799431 0.43262541 0.043730285
-0.058311742 0.43365598 0.046436876
0.14346765 0.43512866 0.04553315
0.15063313 0.43563741 0.043137249
0.16496329 0.43542013 0.045683544
0.17806941 0.43380731 0.045207374
0.18224248 0.43401176 0.046037365
0.19281176 0.43756843 0.043941773
0.20455836 0.43299505 0.046869695
0.21320111 0.43254328 0.046930522
0.22659165 0.43104109 0.047768392
-0.049016804 0.42484379 0.052454557
0.18607804 0.42687857 0.053082298
0.19080406 0.42549753 0.058459282
0.20521702 0.42705131 0.055207089
0.22649777 0.42818418 0.052613113
-0.046815347 0.43243408 0.059611987
0.12692936 0.43540591 0.057274282
0.13384418 0.43352255 0.055149317
0.14348277 0.43822372 0.055235617
0.15524954 0.43717629 0.05506593
0.16459045 0.43647093 0.05286558
0.17603809 0.4360334 0.053985845
0.18333732 0.43344694 0.055210259
0.19646473 0.43464601 0.053298727
0.2034993 0.43596038 0.054841533
0.2136151 0.43601593 0.054756336
0.22503065 0.43677837 0.055557784
0.23280652 0.43564764 0.056334883
3.4972007 0.41261974 0.061829224
0.18812557 0.42570844 0.062054951
0.1957109 0.42563337 0.067066193
0.20650943 0.42762136 0.062375069
0.22273441 0.42195934 0.066420406
-0.04334731 0.43410927 0.065565079
0.11532234 0.4352147 0.064328395
0.12490612 0.4353469 0.064863689
0.14548047 0.43472129 0.065189824
0.15874256 0.4350507 0.063579008
0.16466314 0.43379378 0.065440074
0.17815681 0.43624157 0.063489325
0.18487568 0.43554917 0.064581096
0.19365083 0.43442458 0.067932159
0.2058758 0.43598807 0.066811107
0.21559159 0.43277103 0.061458908
0.22310597 0.43614671 0.064883068
0.23124814 0.4349685 0.063510634
0.049340259 0.42136937 0.078906961
0.056027845 0.4230547 0.075332597
0.19694588 0.42818046 0.077897355
0.20551875 0.42896408 0.071335234
0.21277781 0.428415 0.07820943
0.22307512 0.42033362 0.071419656
0.23075417 0.42742258 0.078571372
0.13404621 0.43310338 0.075060725
0.14278765 0.43441924 0.074564859
0.15501553 0.43684858 0.073729105
0.16263823 0.4333055 0.078557529
0.17404675 0.43469173 0.075273156
0.18473667 0.43451372 0.073905483
0.19211642 0.43234611 0.073372602
0.20209536 0.43635079 0.074943483
0.21619153 0.43439037 0.074373424
0.22676638 0.43533397 0.075765759
0.04778143 0.42503163 0.086508587
0.19297625 0.42856932 0.085630536
0.20406257 0.42300391 0.082525998
0.21354462 0.42880374 0.085713699
0.13308297 0.43550974 0.083417311
0.14451709 0.43308365 0.083246037
0.15250003 0.43171677 0.082315326
0.16533366 0.43300661 0.08365643
0.17546807 0.43398082 0.084886149
0.18461591 0.43206877 0.082585603
0.19053712 0.4340699 0.089266911
0.20550147 0.43263784 0.084447972
0.21938333 0.43249008 0.08022894
0.22625175 0.43484801 0.084022872
0.23159128 0.43059167 0.083961286
0.045273207 0.424009 0.096447349
0.055068448 0.42555127 0.093022197
0.064620301 0.42392561 0.094722353
0.1778449 0.4289293 0.093073584
0.15975517 0.43966511 0.097644508
0.16852978 0.43955928 0.09760455
0.17395221 0.43442938 0.095730774
0.18487793 0.43368056 0.092676371
0.19912334 0.43484238 0.092562847
0.21930833 0.43631285 0.090164483
0.046671283 0.42223188 0.10395811
0.054013163 0.42358202 0.10358022
0.13710992 0.43448001 0.10556066
0.15583912 0.43619734 0.10393181
0.16637288 0.43740854 0.10087218
3.1894085 0.40858129 0.11294708
0.039725408 0.42456549 0.11102442
0.056723692 0.42307743 0.11530813
0.063895747 0.42565581 0.11584182
0.10651682 0.43944636 0.11092483
0.054709688 0.42320365 0.12573901
3.8239722 0.41340366 0.13510653
0.049369439 0.4277482 0.13258305
0.034970257 0.42998588 0.14410934
3.181026 0.40786785 0.16906562
3.8209543 0.41370484 0.2703262
3.3019428 0.42247468 0.29280457
3.4873958 0.41276896 0.30902961
3.9743664 0.42897853 0.35163403
3.5725346 0.42231029 0.38019228
3.9449241 0.4266988 0.419332
3.5901151 0.42483461 0.44629481
3.9232552 0.42526805 0.48719931
6.2815962 0.43106866 0.66492617
6.4207826 0.44113335 0.90864497
1.7204249 0.45746827 0.97546351
1.7792596 0.4532457 1.0080761
6.4050422 0.44107836 1.0214986
1.7872351 0.45884001 1.0543607
6.3932428 0.44137606 1.1351154
6.4039483 0.44318646 1.2533878
4.1076365 0.45867229 1.3485577
6.3929639 0.44376248 1.3682225
4.080894 0.45813552 1.4198151
0.56386673 0.47705036 1.4373424
0.65563744 0.47855467 1.4468029
5.0214834 0.45438242 1.4522909
5.0670915 0.46004382 1.562322
2.5636022 0.48554817 1.5635443
2.5774264 0.49238047 1.6344012
2.5522437 0.49254972 1.6819552
2.5262084 0.49270749 1.7291127
2.7595663 0.49548498 1.7482147
2.9836919 0.49254966 1.7451354
3.2460606 0.4911367 1.7470872
2.7207465 0.49367127 1.7913822
2.9591224 0.49306473 1.8011969
3.2171803 0.49100569 1.8051286
3.5597067 0.49528539 1.8341907
2.6977055 0.4946295 1.844789
3.9109273 0.49433288 1.8427131
4.3064547 0.49189773 1.8455645
2.9310043 0.49317649 1.8553411
2.4351482 0.49163499 1.8620974
3.2061968 0.4935438 1.8735986
2.8844583 0.49053556 1.8976979
3.5283873 0.49503595 1.8972031
3.8919115 0.49556267 1.9179388
4.2838993 0.49263889 1.9256179
3.1785071 0.4938764 1.9330164
2.8521492 0.49023259 1.9489627
3.4864182 0.4935292 1.9543695
3.8360372 0.49259901 1.9749882
3.1329074 0.49175984 1.9815041
4.2571764 0.49307993 2.0041718
3.4452758 0.49223682 2.011631
4.750988 0.49297664 2.0342577
3.1049237 0.49231282 2.04087
3.8039753 0.49254993 2.0437357
4.2093573 0.4914 2.0727675
3.4389923 0.49568713 2.0895317
3.0783119 0.49321988 2.1015112
3.7741859 0.4929069 2.1138818
4.7141581 0.49257627 2.1171815
3.4125168 0.4966352 2.1562235
4.2048144 0.49450001 2.1628895
3.7517409 0.49429712 2.1885686
3.3714488 0.49576038 2.2139533
4.7102156 0.49547535 2.2154274
4.1764503 0.49519163 2.2417843
3.7235961 0.49515286 2.2605391
4.6657929 0.4946143 2.2953861
4.1431527 0.49548781 2.3184035
