# .PCD v0.7 - Point Cloud Data file format
VERSION 0.7
FIELDS x y z
SIZE 4 4 4
TYPE F F F
COUNT 1 1 1
WIDTH 1382
HEIGHT 1
VIEWPOINT 0 0 0 1 0 0 0
POINTS 1382
DATA ascii
0.44471404 0.19147611 -1.0399536
0.46458304 0.19312939 -1.0370854
0.48536396 0.19508974 -1.0355893
0.52814472 0.19930509 -1.0330285
0.52514011 0.18829867 -1.0273775
0.50400287 0.1962619 -1.0292566
0.5468362 0.20046459 -1.0258765
0.58578795 0.19315754 -1.0134873
0.58856255 0.20417137 -1.018105
1.2482907 0.22996394 -1.0029763
0.59625828 0.20771161 -0.95589745
0.62963545 0.20950893 -0.93607444
0.49605209 0.20637563 -0.89815855
0.48944947 0.1951063 -0.88672251
0.54861128 0.21711232 -0.73765093
0.48845738 0.22241816 -0.73445129
0.50113028 0.22328252 -0.72615248
0.4199512 0.21410434 -0.71022457
0.4289684 0.2135995 -0.69829357
2.568202 0.34639847 -0.69979453
0.38579869 0.20994042 -0.6806494
0.34328038 0.21705225 -0.68534911
0.41801259 0.21586898 -0.68142313
1.4944898 0.27102351 -0.68369287
0.35390294 0.21060295 -0.67781568
0.39848825 0.21133582 -0.67587668
0.42864019 0.21628198 -0.6727919
0.48116535 0.22642532 -0.67446661
0.35997972 0.20200604 -0.66247427
0.33251187 0.21754643 -0.66509652
0.3465347 0.21334253 -0.66452307
0.35724646 0.20728044 -0.65774018
2.5962098 0.34851956 -0.65819424
1.3426198 0.27388403 -0.61607599
0.44079971 0.22626287 -0.59965837
0.42995605 0.21483094 -0.58577913
0.3015472 0.22391354 -0.58336341
0.38276964 0.22348562 -0.58351356
1.2704335 0.27382666 -0.58393663
0.34135047 0.22815095 -0.5633738
0.36979198 0.22908805 -0.56497955
3.1732976 0.38298857 -0.56735218
3.5253947 0.41959864 -0.56540722
0.39963877 0.21998315 -0.54697478
0.41104451 0.2280093 -0.54256928
0.39809906 0.2315833 -0.54500407
1.2310547 0.27723694 -0.54013461
0.37546822 0.22979683 -0.5342018
0.40729827 0.22002977 -0.53794301
0.40393022 0.23069441 -0.53378385
1.2283626 0.26473212 -0.53899187
0.4098511 0.21779566 -0.52291352
0.38235036 0.22949286 -0.52484661
0.40939078 0.223645 -0.52236491
1.268293 0.2829206 -0.5292809
0.36012143 0.22730091 -0.51383585
0.35450402 0.22991064 -0.50638133
0.36928636 0.21898291 -0.49100226
0.35736936 0.22474116 -0.49287242
0.36941886 0.224731 -0.49116585
0.368985 0.23594728 -0.49063012
1.2494608 0.27799898 -0.49574962
0.36654103 0.22886939 -0.48761204
0.39141938 0.23495616 -0.48423842
0.54410553 0.23481414 -0.48548412
0.54059094 0.2435073 -0.48253509
1.2263778 0.28547779 -0.48688892
0.37073827 0.22752202 -0.47630066
0.35955158 0.23626766 -0.47898078
0.37971509 0.23448007 -0.47077417
0.39795285 0.23489325 -0.47541294
0.41068953 0.23217838 -0.47332153
0.5155201 0.2330521 -0.47765741
0.63999951 0.2389185 -0.47394341
0.50672466 0.24565881 -0.47001165
0.51459515 0.24242295 -0.47685343
0.53257978 0.24702623 -0.47581297
0.54659015 0.24664763 -0.4709394
0.66457826 0.24462134 -0.47342739
0.36476278 0.22987717 -0.46917936
0.39278793 0.22652246 -0.4696767
0.543688 0.22898664 -0.46858928
0.36180964 0.23379549 -0.46565992
0.40754023 0.236449 -0.46994433
0.54011035 0.23425737 -0.46569219
0.55760348 0.2450638 -0.46335232
0.62112349 0.2400348 -0.46072629
0.41484576 0.22672237 -0.4542481
0.35703421 0.23659842 -0.45996878
0.36683881 0.23581056 -0.45596173
0.37781939 0.23006117 -0.45305246
0.54993379 0.2355732 -0.45736015
0.49310899 0.2462566 -0.45817575
0.50922096 0.24406394 -0.45621255
0.54935867 0.24859945 -0.45691079
0.65698588 0.24764241 -0.45116037
1.219699 0.27115446 -0.45932505
1.215004 0.28192589 -0.45761621
0.10793801 0.21505107 -0.44629678
0.11519966 0.21624626 -0.44500574
0.12245639 0.21743767 -0.44357049
0.36720583 0.22985063 -0.4412649
0.42895126 0.22612394 -0.44549304
0.34447154 0.2373172 -0.44499722
0.38387191 0.23552759 -0.44456315
0.39419791 0.23221135 -0.44057417
0.40196916 0.23050733 -0.44862157
0.41318402 0.23302092 -0.44500384
0.5504393 0.23357059 -0.44186741
0.49250084 0.24336749 -0.44218272
0.51511818 0.24396209 -0.44545391
0.55061412 0.24344212 -0.44199917
0.60386026 0.2412992 -0.44863847
0.62861925 0.24047965 -0.44917271
1.1908543 0.28862059 -0.44882643
0.10515823 0.21422066 -0.4359225
0.11563028 0.21580021 -0.43356156
0.12637872 0.2155875 -0.43175119
0.18404371 0.22442251 -0.43546683
0.43541974 0.22635555 -0.43672541
0.45501739 0.22649464 -0.4398104
0.36477202 0.23393159 -0.43856189
0.37554914 0.23111373 -0.43563807
0.38779765 0.23998323 -0.43394652
0.39675075 0.23520526 -0.43340036
0.43733487 0.23590007 -0.43851131
0.35735568 0.24048258 -0.43032521
0.41368648 0.24168661 -0.43075201
0.42880949 0.24053878 -0.43056124
0.4652108 0.24020995 -0.43392423
0.48454753 0.24611421 -0.43550909
0.49742085 0.24293999 -0.43112287
0.51630741 0.24204536 -0.43108833
0.60561204 0.24331543 -0.43365416
0.62713879 0.24511716 -0.43177745
0.10354365 0.2154886 -0.4298968
0.11414041 0.21752992 -0.42842206
0.12390127 0.21820149 -0.42412645
0.13477841 0.21496138 -0.42665872
0.14385426 0.21832502 -0.42688233
0.41012993 0.22868788 -0.4273175
0.43439209 0.22619823 -0.42123926
0.34299096 0.23020871 -0.42852789
0.35107422 0.23151365 -0.42334893
0.37549275 0.23875467 -0.42120442
0.39209774 0.23914258 -0.42391753
0.41227233 0.23532486 -0.42938641
0.44126877 0.23789832 -0.42743105
0.55462652 0.23947673 -0.4294101
0.57717848 0.23890401 -0.42995566
0.40427136 0.24249473 -0.42165995
0.4192211 0.2415432 -0.42161992
0.43712395 0.24173701 -0.42369905
0.45955318 0.24362782 -0.42900616
0.47152534 0.24641688 -0.42458218
0.48493671 0.24375802 -0.42101341
0.51186943 0.2465191 -0.42762101
0.53164721 0.24583125 -0.4277066
0.55007714 0.24428205 -0.42610475
0.56471634 0.24106887 -0.4212296
0.61269826 0.24722457 -0.42239964
0.099406101 0.211584 -0.41445529
0.10757706 0.21557307 -0.41842258
0.11436756 0.21678787 -0.41711316
0.12558578 0.21718791 -0.41433287
0.14256288 0.21665713 -0.41340011
0.38816294 0.24254017 -0.41998273
0.41239327 0.24373576 -0.41525289
0.44179216 0.24125598 -0.41356674
0.45420423 0.24443652 -0.41004804
0.47248024 0.2443119 -0.41092637
0.49171633 0.24424694 -0.41187567
0.53778654 0.24599771 -0.41717514
0.54913461 0.2418144 -0.41031915
0.58345485 0.24577396 -0.41870895
0.098036647 0.21305016 -0.4093444
0.10294692 0.21099016 -0.40227535
0.13226561 0.21456417 -0.40568295
0.14683875 0.21229194 -0.40516195
0.42109159 0.23967966 -0.40926346
0.40420428 0.24506475 -0.40761653
0.43262404 0.24542925 -0.405597
0.47685042 0.24382409 -0.40026116
0.50813729 0.24267098 -0.40999061
0.54139876 0.24525097 -0.40490243
0.56289691 0.2448906 -0.40484244
0.57897645 0.24223123 -0.40050045
0.094393663 0.20966774 -0.39574859
0.10738994 0.2084569 -0.39429039
0.096117377 0.21479228 -0.39399251
0.10357337 0.21286963 -0.3928299
0.11987904 0.21875542 -0.39070237
0.12494065 0.21407667 -0.39530802
0.40999293 0.23971365 -0.39927018
0.43694672 0.24207823 -0.39556727
0.4571237 0.24326706 -0.39849091
0.49380195 0.24282123 -0.39918813
0.51089543 0.24159305 -0.39763761
0.52119106 0.24359421 -0.39075288
0.54160702 0.24329017 -0.39048222
0.55350006 0.25423664 -0.39850417
0.094089344 0.21323726 -0.38259411
0.10407716 0.21455796 -0.38345477
0.11304153 0.2152295 -0.38555369
0.1250395 0.21804133 -0.38582939
0.42764941 0.24319561 -0.38776588
0.44108808 0.24155173 -0.3855055
0.46277165 0.24342217 -0.3892616
0.48065788 0.24612056 -0.38928336
0.49296886 0.24325216 -0.38461319
1.2317816 0.28176224 -0.38975015
1.2306812 0.29318431 -0.38941374
0.10128053 0.21315673 -0.37430739
0.11306207 0.21515056 -0.37090442
0.12264382 0.21826941 -0.37924731
0.15784235 0.21760429 -0.37927788
0.48425925 0.24837312 -0.37828526
0.098499149 0.21160422 -0.36520991
0.12445189 0.21461505 -0.36621937
1.0950574 0.27705485 -0.36971149
1.2343858 0.28125638 -0.36635813
1.2313987 0.29226249 -0.36550158
0.1091219 0.21208298 -0.35946134
0.1380264 0.22625758 -0.3511219
0.98024726 0.28189626 -0.35217676
1.0492194 0.28737432 -0.35481778
0.084851943 0.21522115 -0.34417489
0.13597699 0.21522804 -0.34651887
0.081797875 0.22083098 -0.34874049
0.9600302 0.26764554 -0.34521547
0.078318313 0.21575227 -0.33575457
0.088741496 0.21405414 -0.33329409
0.095370233 0.21432541 -0.33631691
0.10358518 0.21464393 -0.33494377
0.11310886 0.21572044 -0.33150816
0.088429086 0.22102782 -0.33227223
0.099866048 0.22155194 -0.33258039
0.10581133 0.22015953 -0.33300042
0.12288551 0.22182254 -0.33092284
0.13104059 0.2235516 -0.33543155
0.14461456 0.22586529 -0.33694953
1.223151 0.28961027 -0.33938918
0.077039562 0.2151085 -0.32308838
0.084170133 0.2145339 -0.32723039
0.10509729 0.21818656 -0.32324412
0.11231482 0.21744859 -0.32702386
0.12358138 0.21662125 -0.32783777
0.077920265 0.22392187 -0.32439917
0.085212715 0.22104838 -0.32175195
0.11620504 0.22217786 -0.32934085
0.12453739 0.22464342 -0.3276369
0.13255963 0.22271283 -0.32505888
0.14518611 0.23206387 -0.32503909
0.074533425 0.21842876 -0.31214684
0.087652296 0.21503463 -0.31668222
0.095929489 0.21645677 -0.31488559
0.10676567 0.21854848 -0.3128573
0.11242378 0.21928512 -0.3199819
0.09856914 0.22095975 -0.31310266
0.10298877 0.2211147 -0.31030604
0.11576364 0.2211802 -0.31414479
0.12240358 0.22129017 -0.3160325
0.13179779 0.22219092 -0.31486741
0.14196609 0.22740594 -0.31871945
1.2239223 0.28885287 -0.31604457
1.2246519 0.30044919 -0.31622651
0.069403216 0.21740822 -0.30248299
0.072858721 0.21754509 -0.30617303
0.083263382 0.21666585 -0.30542633
0.092763834 0.21692497 -0.30436367
0.1054373 0.21659327 -0.3072395
0.11632689 0.21845084 -0.30879968
0.06975165 0.22220309 -0.30378336
0.07486254 0.22270003 -0.30433348
0.085116997 0.22152984 -0.30479932
0.094577722 0.22000995 -0.30213633
0.10542639 0.22261775 -0.302674
0.11414804 0.22022516 -0.3037425
0.12661958 0.22672996 -0.30402401
0.13469237 0.22433582 -0.30444396
0.14083299 0.22729808 -0.30460095
0.075059488 0.21728639 -0.29372418
0.094238229 0.21857038 -0.29424003
0.10779287 0.21801767 -0.29536679
0.068665765 0.22267932 -0.29973081
0.074531019 0.2233009 -0.29200074
0.086585358 0.22241808 -0.29401046
0.096381903 0.22249667 -0.29309458
0.1032533 0.2226755 -0.29728416
0.11389598 0.22362649 -0.29692408
0.12492394 0.2258618 -0.29657984
0.13471824 0.22582687 -0.29310083
1.2175839 0.2867465 -0.29122421
1.2307492 0.30083191 -0.29426363
0.06656608 0.21694383 -0.28614759
0.0795651 0.21871307 -0.28767374
0.085423112 0.21635789 -0.28706831
0.095718563 0.21690831 -0.28488821
0.10422529 0.21858911 -0.28696209
0.12603384 0.21844928 -0.28745064
0.06677343 0.22362053 -0.28423142
0.075888604 0.22335809 -0.28352863
0.084825061 0.22235578 -0.28419602
0.095491618 0.22553816 -0.28420937
0.10661187 0.22309563 -0.2864393
0.11449733 0.22325416 -0.28402048
0.12906668 0.22455561 -0.28247175
0.13558069 0.22413665 -0.28922403
0.10263543 0.2302932 -0.28321663
0.13160278 0.2323633 -0.28724146
0.14780402 0.23552844 -0.28455973
0.15377851 0.2385774 -0.28425923
0.064788438 0.21715602 -0.27686483
0.078560896 0.21712866 -0.27070576
0.085550174 0.21974602 -0.27733332
0.09497267 0.21854948 -0.27678251
0.10037551 0.21828854 -0.27789259
0.065533087 0.22488025 -0.27567318
0.07328178 0.22543831 -0.27540141
0.082337767 0.22290872 -0.27278528
0.093666159 0.22499147 -0.27556992
0.10553533 0.2247287 -0.27438042
0.11567134 0.22491381 -0.27401847
0.12348574 0.22620836 -0.27540943
0.13402681 0.22707371 -0.2770308
0.1410854 0.22959927 -0.27337807
0.11973498 0.23021701 -0.27508843
0.13218418 0.2348353 -0.27782443
0.15809332 0.23820619 -0.27168968
1.226894 0.2992076 -0.27014041
0.059374668 0.2164084 -0.26505595
0.067662798 0.21790631 -0.26434875
0.073783211 0.21783246 -0.26987892
0.0850216 0.21875435 -0.26349998
0.097524017 0.21949567 -0.26015207
0.059580274 0.22445688 -0.2658233
0.06612958 0.22609216 -0.26633805
0.075755402 0.22347037 -0.26437876
0.086770758 0.22436041 -0.26410574
0.096860379 0.22672793 -0.26590014
0.10687315 0.22403383 -0.26466453
0.11361943 0.22671223 -0.26308599
0.1241264 0.223052 -0.26326057
0.13415061 0.22719362 -0.26491567
0.14278433 0.2287347 -0.26666486
0.097785503 0.23100419 -0.26073939
0.1065119 0.23049495 -0.26919934
0.12735912 0.23382877 -0.2658762
0.13422331 0.23047408 -0.26195762
0.14514859 0.23113155 -0.26348233
1.2232646 0.28710732 -0.26936895
0.055900969 0.2184073 -0.25209194
0.067800216 0.21850528 -0.25146517
0.059372734 0.22407827 -0.25031412
0.064908691 0.22569914 -0.2553477
0.076165408 0.22554469 -0.25544569
0.084524475 0.22514296 -0.25454077
0.094947837 0.22398259 -0.25695878
0.10397374 0.22579265 -0.25559604
0.11555874 0.22949433 -0.25701299
0.12577531 0.22678682 -0.25379664
0.1345192 0.2275807 -0.25341389
0.14640041 0.22605497 -0.25435421
0.096422292 0.23175582 -0.25767756
0.11377683 0.23388694 -0.25681651
0.12708415 0.23389009 -0.2545324
0.13735348 0.23281436 -0.25209004
0.14776067 0.23252949 -0.25350329
0.15485546 0.23259291 -0.25371236
1.2488152 0.29146168 -0.25133148
0.054827031 0.21981691 -0.24808392
0.056187481 0.22559243 -0.24827549
0.065752283 0.22409412 -0.24336743
0.076196 0.22782831 -0.24514192
0.08619412 0.22573635 -0.2444818
0.096546039 0.22744203 -0.24781679
0.103568 0.22767907 -0.24338752
0.12787163 0.22632447 -0.24279957
0.14264083 0.22719346 -0.24057406
0.087215632 0.23125526 -0.24688986
0.095299639 0.23208101 -0.24515149
0.10388607 0.23389193 -0.24403331
0.1158587 0.23271222 -0.24616911
0.12370306 0.23529613 -0.246158
0.13590927 0.23269086 -0.24367312
0.1434197 0.23238337 -0.24576321
0.15509745 0.23284207 -0.24441841
0.16571531 0.23542874 -0.24490899
1.2360681 0.30036101 -0.2488537
0.054137301 0.21849284 -0.23630437
0.066761315 0.21971153 -0.23643728
0.053398978 0.22489759 -0.23376596
0.063141711 0.22356974 -0.23252673
0.074734442 0.22508974 -0.2346011
0.084398322 0.22807141 -0.23438028
0.09484905 0.22802857 -0.23485336
0.10597187 0.22714731 -0.23612538
0.11169752 0.22720383 -0.23243693
0.13840629 0.22828904 -0.2345265
0.15418294 0.22690944 -0.23280564
0.057321016 0.23089817 -0.2305223
0.078769572 0.23083244 -0.23668481
0.086569481 0.23114228 -0.23554778
0.096342102 0.23409349 -0.23347074
0.10471816 0.23149499 -0.2323554
0.11980008 0.23261459 -0.23795335
0.1255323 0.23392242 -0.23499046
0.13347766 0.233715 -0.23387894
0.14417619 0.23594768 -0.23484726
0.15256271 0.23585004 -0.23454513
0.16255893 0.23618734 -0.23314676
0.048934739 0.22533767 -0.22609358
0.054865256 0.22341709 -0.22530302
0.066762432 0.22436962 -0.22398695
0.072449729 0.22639225 -0.22342613
0.083115131 0.22265011 -0.22335571
0.094559714 0.22506239 -0.22567919
0.1040485 0.22800757 -0.22306639
0.11297147 0.22776231 -0.22662961
0.12690717 0.22826058 -0.22924739
0.15390578 0.22642455 -0.22867905
0.048914053 0.232925 -0.22601639
0.053879522 0.23422012 -0.22312632
0.064761609 0.23507747 -0.22012857
0.077153787 0.23303643 -0.22315404
0.088155434 0.23350304 -0.22119117
0.099589959 0.23325826 -0.22703412
0.10635061 0.23252422 -0.22711596
0.11526166 0.23355997 -0.22592255
0.12492479 0.23351149 -0.22251517
0.13381192 0.2347291 -0.22609296
0.14524713 0.23448832 -0.22571993
0.1556197 0.23766494 -0.22714588
0.16297346 0.23610458 -0.22505422
0.15850456 0.24139175 -0.22337039
0.16632545 0.24228087 -0.22529231
1.2535837 0.30329531 -0.22885479
0.047491483 0.22844911 -0.21657746
0.056792967 0.22549902 -0.21588652
0.065828525 0.2233562 -0.21540342
0.075895794 0.22554205 -0.21362555
0.08537811 0.22772801 -0.21552232
0.093934387 0.22892842 -0.21255088
0.10504663 0.22717348 -0.21340558
0.11112175 0.2299137 -0.21599415
0.12870814 0.22710063 -0.21355732
0.048548914 0.23155829 -0.21643612
0.055759829 0.23284344 -0.21444137
0.065328702 0.23389147 -0.21527001
0.076090544 0.23225322 -0.21477163
0.083341867 0.23254426 -0.21540439
0.091459915 0.23323613 -0.21565194
0.10486792 0.23481816 -0.21671852
0.11575906 0.23171541 -0.2135787
0.12611434 0.23719437 -0.21693616
0.13553257 0.23504239 -0.215801
0.14619809 0.23696926 -0.21550646
0.15596879 0.2361602 -0.2133835
0.16109477 0.23939371 -0.21235539
0.13529611 0.2429176 -0.21545652
0.14863591 0.2427635 -0.21507743
0.15696041 0.24122527 -0.21452901
0.16747215 0.24212044 -0.21593018
1.2943382 0.29917598 -0.21204259
1.2911255 0.31040281 -0.21153374
0.045889404 0.22440338 -0.20327774
0.05501353 0.22453509 -0.20703185
0.06342721 0.22534806 -0.2060218
0.076426193 0.22591636 -0.20340222
0.084713981 0.22614917 -0.20384344
0.095096365 0.2247287 -0.20469508
0.1035115 0.22791013 -0.20379144
0.14577651 0.22959271 -0.20165862
0.05855095 0.23060815 -0.20315358
0.065182358 0.23341298 -0.20593695
0.084664583 0.2353012 -0.2037757
0.098669246 0.23597014 -0.20278572
0.1067588 0.23540613 -0.20552337
0.11738811 0.23229265 -0.20452568
0.12447903 0.23702538 -0.20772976
0.13372946 0.23682559 -0.20472269
0.14426933 0.23820606 -0.20313218
0.15407091 0.23556226 -0.20785606
0.16441093 0.23928541 -0.2048192
0.11586182 0.24350137 -0.20907891
0.12902533 0.24096665 -0.20060536
0.13049042 0.24015808 -0.20910524
0.15300195 0.24203673 -0.20554076
0.16646993 0.24329329 -0.2047312
1.6123042 0.31649798 -0.20345019
2.9278095 0.40525803 -0.20787144
0.044460203 0.22628745 -0.19316645
0.055400327 0.22439207 -0.19774009
0.066192105 0.22508256 -0.19646007
0.074548922 0.2258575 -0.19544703
0.085609443 0.2270087 -0.19462849
0.093478575 0.22605702 -0.19577405
0.066618249 0.23571853 -0.19451094
0.072085574 0.23345245 -0.19537187
0.08188419 0.23273861 -0.19374262
0.093695424 0.23375231 -0.19455437
0.10447739 0.23469596 -0.19483761
0.113135 0.23462719 -0.19632581
0.12600474 0.23596968 -0.19669408
0.13294493 0.23725259 -0.19539826
0.14526562 0.23901549 -0.19602767
0.15378968 0.23624334 -0.19577217
0.16184868 0.23791203 -0.19366848
0.11319129 0.24240692 -0.19374555
0.12413983 0.24526456 -0.19438194
0.13844237 0.24302098 -0.19526643
0.1455636 0.24388821 -0.19510628
0.15645936 0.24105361 -0.19747947
0.16315806 0.24326815 -0.19496627
1.5248487 0.31555572 -0.19271199
0.038476415 0.22550243 -0.18211234
0.045163192 0.22544698 -0.18676196
0.055722017 0.22392547 -0.18475375
0.066245407 0.22603863 -0.18459262
0.074091874 0.22713657 -0.1855325
0.085338488 0.22697227 -0.18552084
0.09326601 0.22991638 -0.18741898
0.11482313 0.2261458 -0.18532023
0.12138873 0.22799298 -0.18199001
0.039141323 0.23168854 -0.18954407
0.045931995 0.23162213 -0.18419865
0.053029429 0.23275974 -0.18798333
0.075236343 0.23272972 -0.18247826
0.084142141 0.23335545 -0.18470904
0.095673844 0.23363622 -0.18566839
0.10523405 0.23634252 -0.18318892
0.11431696 0.2365896 -0.18562827
0.12268046 0.23911512 -0.18354973
0.13632551 0.23936862 -0.18195388
0.14275128 0.23636925 -0.18599293
0.15425748 0.23630029 -0.18459001
0.093915679 0.24129122 -0.18235764
0.10179022 0.24109422 -0.18223335
0.11674224 0.24188432 -0.1829426
0.12388554 0.24294822 -0.18205504
0.14768516 0.2457428 -0.18530273
0.15130328 0.24209259 -0.18312308
0.16339561 0.24492413 -0.1830588
1.2986909 0.29948288 -0.18878189
0.037502903 0.22601165 -0.17405657
0.047688656 0.22530024 -0.17325722
0.055258624 0.22469068 -0.1760592
0.064416736 0.22533336 -0.1754068
0.074680991 0.2253065 -0.17405637
0.08787176 0.22815096 -0.17683564
0.1035746 0.22858925 -0.17338674
0.039972816 0.23195313 -0.17377891
0.060423288 0.23046353 -0.17682248
0.075977698 0.23296551 -0.17444402
0.084947258 0.23395963 -0.17657271
0.09489584 0.23549789 -0.17514071
0.10240857 0.23473373 -0.17457673
0.11414947 0.23537628 -0.1743377
0.12463382 0.23244086 -0.17456099
0.13312539 0.23677 -0.17022566
0.15572318 0.2385298 -0.17590414
0.097876862 0.24151853 -0.17112172
0.10442369 0.24165654 -0.17731109
0.11507502 0.24235272 -0.17699325
0.12637423 0.24453436 -0.17377611
0.13969444 0.24000224 -0.17151424
0.14574036 0.24365628 -0.17753451
0.15476665 0.24269888 -0.17500621
0.16337952 0.24271336 -0.17343909
0.036019396 0.22646669 -0.16523455
0.045461062 0.22589517 -0.16579197
0.055056427 0.22551388 -0.16606455
0.065386601 0.22522032 -0.16623294
0.075031586 0.22612983 -0.16547118
0.084837496 0.22804096 -0.16483074
0.12410618 0.22967929 -0.160886
0.036342718 0.23183852 -0.1699989
0.045037385 0.23253185 -0.16609374
0.056512702 0.23277652 -0.16309631
0.066082828 0.2344238 -0.16543138
0.07291986 0.2335999 -0.1642065
0.084405445 0.23420671 -0.16697639
0.093805306 0.23489273 -0.16477624
0.10470095 0.23595493 -0.16594452
0.11633354 0.2357894 -0.164672
0.12347685 0.23519266 -0.16793479
0.13647552 0.2387929 -0.16829532
0.14437103 0.23914036 -0.16530019
0.16255865 0.23939621 -0.16532834
0.077114016 0.24235937 -0.16425654
0.083872557 0.24189323 -0.16428913
0.091664404 0.24176982 -0.16777217
0.10457842 0.24107802 -0.16414398
0.11363213 0.24149494 -0.16468075
0.12417854 0.24217071 -0.16346735
0.13153383 0.2443819 -0.16508536
0.14432323 0.24359833 -0.16631837
0.15498152 0.2429415 -0.16423777
0.16282025 0.24431722 -0.16448422
-0.071198352 0.22722629 -0.15332969
-0.062993884 0.22504517 -0.15107769
-0.059710946 0.22464263 -0.15227199
0.046194568 0.22560959 -0.15775934
0.054049801 0.2264324 -0.15748416
0.064002857 0.22801696 -0.15566382
0.077246122 0.22873914 -0.15546644
0.081589498 0.22896065 -0.15338373
0.090209268 0.22965361 -0.15565035
-0.076108575 0.23224145 -0.15625849
-0.067231901 0.23226288 -0.15270728
0.033766009 0.23036183 -0.15347736
0.054797079 0.23274538 -0.15829469
0.065680504 0.23285933 -0.15780483
0.075888038 0.23623599 -0.15742388
0.084924608 0.23476614 -0.15541723
0.096335538 0.23600069 -0.15772633
0.10423602 0.23618555 -0.15385573
0.11243498 0.23484747 -0.15429053
0.12432727 0.23892178 -0.15368649
0.13060181 0.23758414 -0.15738033
0.14291972 0.23810956 -0.15752579
0.086444251 0.24448723 -0.15538606
0.094919339 0.24230015 -0.15571098
0.10575108 0.24561745 -0.1508469
0.11335635 0.24536178 -0.15444838
0.12436485 0.24292572 -0.15617536
0.13308409 0.2451984 -0.15977743
0.14664789 0.24469279 -0.15450588
0.15426908 0.24595721 -0.15436481
0.16371259 0.24588025 -0.15474886
-0.064229056 0.21894307 -0.14398639
-0.081453308 0.22585553 -0.14610201
-0.074315071 0.22675925 -0.14482509
-0.065860122 0.22366352 -0.14665321
-0.05624092 0.22603658 -0.1438587
0.034334686 0.2253938 -0.14594361
0.043409176 0.22638732 -0.14359015
-0.075578034 0.2367408 -0.1423737
-0.065481134 0.23198026 -0.14414887
-0.057894982 0.23504439 -0.14069529
0.038285844 0.23184693 -0.14549211
0.044800051 0.23261251 -0.14516513
0.0545756 0.23428762 -0.14414823
0.063853763 0.23538108 -0.1421721
0.073878288 0.23785096 -0.14019185
0.086705446 0.23386154 -0.14640197
0.095336094 0.23530212 -0.14745994
0.1070223 0.23571032 -0.14319512
0.11631161 0.23655109 -0.1472235
0.12818232 0.23192504 -0.14556839
0.13667354 0.23440823 -0.14362364
0.15392843 0.23904343 -0.14307508
0.067564704 0.24468283 -0.14628829
0.079609409 0.2450844 -0.14158386
0.096709102 0.24004473 -0.14521302
0.10641043 0.24373573 -0.14477122
0.11551971 0.24352472 -0.1442904
0.12592743 0.24349484 -0.1474324
0.13540873 0.24687231 -0.14654143
0.1460945 0.24295825 -0.14504555
0.15426061 0.24582513 -0.14331594
0.16414571 0.24740554 -0.14570716
0.15458693 0.25186479 -0.14357287
0.16699426 0.25202784 -0.14777878
-0.10516635 0.22792384 -0.13164064
-0.096129909 0.22718462 -0.13408355
-0.08422073 0.22485697 -0.1351974
-0.075575776 0.22498107 -0.136613
-0.063532136 0.22729358 -0.13541421
-0.054300826 0.22616282 -0.13447213
0.054523289 0.22698255 -0.13425539
0.06374827 0.22863543 -0.13591908
-0.098002128 0.23114432 -0.13744263
-0.076931372 0.23358516 -0.13702944
-0.066259012 0.23107293 -0.1365113
-0.056610204 0.23222843 -0.13143075
0.038258582 0.23120493 -0.13652748
0.047720637 0.23350272 -0.13599032
0.054775305 0.23446272 -0.13555187
0.065244481 0.23406714 -0.13505489
0.073960602 0.23517759 -0.13466798
0.084918045 0.23458955 -0.13363636
0.093231879 0.23511715 -0.13498297
0.10690165 0.23839438 -0.13659167
0.11540166 0.23889738 -0.13608958
0.12543944 0.23600125 -0.13704014
0.13318302 0.235084 -0.13505319
0.1409431 0.23895547 -0.13328992
0.15307292 0.23725274 -0.13299376
0.048958018 0.24153291 -0.13618082
0.068013862 0.24014153 -0.13814138
0.0759091 0.24268381 -0.13463603
0.085456155 0.24385035 -0.13489515
0.091648407 0.24335566 -0.13317931
0.11603591 0.2420038 -0.13667309
0.12538232 0.24563721 -0.13598172
0.13601032 0.2458756 -0.13310005
0.14694707 0.24354574 -0.13321364
0.15721858 0.24438816 -0.13356388
0.16539809 0.24704278 -0.13552266
0.15483521 0.25231045 -0.13266546
-0.084148414 0.21883072 -0.12851855
-0.10326587 0.22498077 -0.12420292
-0.094694935 0.22530873 -0.12630816
-0.08570803 0.22622685 -0.12669466
-0.075371981 0.2252422 -0.12560515
-0.06174355 0.22352904 -0.12515354
-0.059203088 0.22756425 -0.12938991
-0.11390714 0.23505883 -0.12579776
-0.10532548 0.23443788 -0.12739262
-0.096234806 0.23362629 -0.12421535
-0.08311411 0.23388885 -0.12304037
-0.077633508 0.2303365 -0.12570174
0.035266958 0.23021953 -0.12450647
0.043044232 0.23267312 -0.12260723
0.055465933 0.23442194 -0.12482931
0.065110914 0.23513545 -0.12570921
0.074851476 0.23650317 -0.1241903
0.08368396 0.23673637 -0.12560697
0.093196288 0.23448494 -0.12628394
0.10423239 0.2362718 -0.12396213
0.11304607 0.23348784 -0.12510622
0.12803309 0.23972122 -0.12773518
0.13434261 0.23534374 -0.12616734
0.14204311 0.23989023 -0.12527061
0.058810052 0.24108288 -0.12829971
0.066798002 0.24316446 -0.12383832
0.075560123 0.24421339 -0.12547845
0.085278586 0.24300301 -0.12435694
0.093376368 0.24420819 -0.12519731
0.10385393 0.24675423 -0.12413529
0.12533419 0.24250133 -0.12324575
0.1372464 0.24652718 -0.12446761
0.1475262 0.24565792 -0.12467136
0.15512845 0.24525872 -0.12300267
0.16437456 0.24662212 -0.12654951
0.13530713 0.25199109 -0.12754419
0.14089203 0.25095871 -0.12019656
0.15631478 0.25274456 -0.12452507
0.17305398 0.25325778 -0.12241276
-0.094671987 0.2268099 -0.11707418
-0.085285291 0.22481792 -0.11622988
-0.072025627 0.22459048 -0.11603041
-0.064978153 0.22629564 -0.11608368
-0.055283006 0.22563025 -0.11580644
-0.047001343 0.22367483 -0.11312902
-0.12436762 0.2365444 -0.11698113
-0.11430062 0.23777233 -0.11324622
-0.10342277 0.23554698 -0.11454584
-0.095111959 0.23573725 -0.1140596
-0.084843077 0.23590226 -0.11501906
-0.073800437 0.23492929 -0.11296843
-0.064047292 0.23155378 -0.11310561
-0.059121519 0.23112531 -0.1120057
0.039321627 0.23267351 -0.11606728
0.046943516 0.23250262 -0.11214918
0.056260917 0.2341134 -0.11563043
0.065761454 0.23631465 -0.11474025
0.075565338 0.23657122 -0.11505981
0.085166655 0.23706532 -0.11467594
0.092496961 0.23861104 -0.11342414
0.10419351 0.23549579 -0.11821978
0.13658926 0.23588973 -0.11186056
0.056372412 0.24147177 -0.11736999
0.06631422 0.2425267 -0.11521091
0.073566593 0.24181664 -0.11649884
0.086052202 0.24377184 -0.11550169
0.095159017 0.24328089 -0.11350433
0.10514843 0.24531913 -0.11507959
0.11261538 0.24602275 -0.11569738
0.13492422 0.24375133 -0.11536258
0.14501442 0.24380612 -0.11868222
0.15870188 0.246979 -0.11633681
0.16585499 0.24855216 -0.11486523
0.10481399 0.25078467 -0.11319612
0.149937 0.25076929 -0.11326795
0.16420175 0.2524116 -0.11504023
-0.080722921 0.22647864 -0.10354908
-0.075511083 0.22577709 -0.10804868
-0.063753888 0.22586374 -0.1068156
-0.054816816 0.22483838 -0.10413536
-0.045264043 0.22555593 -0.10499027
-0.12203901 0.23801276 -0.10427092
-0.11156741 0.23720574 -0.10433783
-0.10496019 0.23556569 -0.10335305
-0.095054582 0.23510286 -0.1036156
-0.085358903 0.23414278 -0.10416009
-0.074667454 0.23403804 -0.10653397
-0.063166857 0.23333839 -0.10285383
-0.052378643 0.2341045 -0.10162297
0.039092842 0.23217013 -0.10072379
0.045580618 0.23408876 -0.10388273
0.054560121 0.23467399 -0.10505626
0.064022109 0.23677664 -0.10451557
0.07465969 0.23694935 -0.10524235
0.084361009 0.23767674 -0.10404868
0.093627349 0.23722562 -0.10465371
0.11346793 0.23385212 -0.1070604
0.058017299 0.24156207 -0.10361432
0.066889256 0.24321489 -0.10360613
0.075148568 0.24384636 -0.10495109
0.083319448 0.24405967 -0.10479682
0.095579386 0.24393003 -0.10399471
0.10593469 0.24640985 -0.10554459
0.11539732 0.24567822 -0.10498703
0.1234616 0.24684219 -0.10541852
0.14515172 0.24510819 -0.10426218
0.15768252 0.24520254 -0.10496664
0.164795 0.2467324 -0.10437727
0.094792962 0.2503266 -0.10285049
0.12688379 0.25252873 -0.101882
0.15572375 0.25385389 -0.10571585
0.16466843 0.25525996 -0.10431457
0.17051314 0.25263473 -0.10731035
-0.074982323 0.22852293 -0.095916212
-0.064442746 0.22691999 -0.096805133
-0.054356378 0.22763182 -0.095601477
-0.045738187 0.22423942 -0.094590135
-0.039402053 0.22436532 -0.094154507
-0.12571913 0.23698819 -0.097776383
-0.11318836 0.23799619 -0.095279306
-0.10552088 0.23770991 -0.097035646
-0.095845789 0.23777123 -0.094694383
-0.084894247 0.23609611 -0.094591744
-0.074462734 0.23444466 -0.094609424
-0.064587176 0.23361257 -0.095109917
-0.057301041 0.23268788 -0.094882466
-0.04879085 0.23683265 -0.099150576
0.037257925 0.23152147 -0.094325811
0.04603672 0.23405717 -0.094389245
0.055065088 0.23551655 -0.094222672
0.065379165 0.23643923 -0.093828045
0.075501271 0.23731062 -0.092575081
0.080135867 0.23504595 -0.09031377
0.094761759 0.23828135 -0.0967917
0.10836629 0.23858762 -0.098257668
0.11008222 0.23985977 -0.095996991
0.12544908 0.23654225 -0.094907254
-0.072166458 0.24065897 -0.095992729
-0.06654337 0.24059252 -0.095988393
0.057776168 0.24066547 -0.094970755
0.065085262 0.24081638 -0.095929101
0.076096445 0.24468391 -0.096635729
0.08527299 0.24512531 -0.094968162
0.095586091 0.24611178 -0.09526033
0.10483371 0.24515761 -0.094648756
0.11490387 0.24577133 -0.094470888
0.12586503 0.24680774 -0.095780693
0.13074622 0.2473321 -0.090645216
0.14445251 0.24207526 -0.094031811
0.15595512 0.24549806 -0.094960265
0.16096091 0.24399272 -0.096154034
0.10649982 0.25253451 -0.096967384
0.11728851 0.25323975 -0.09594696
0.12444489 0.25395125 -0.095544033
0.13364394 0.25245121 -0.09515205
0.15734461 0.2517305 -0.093398944
0.16450056 0.2533111 -0.095691539
-0.091918573 0.22947283 -0.082189925
-0.075586945 0.22843401 -0.085715726
-0.064007208 0.2273495 -0.083878681
-0.055403698 0.22633287 -0.083998553
-0.0447409 0.22544383 -0.08511278
-0.12467311 0.23970631 -0.085569628
-0.11466724 0.23784259 -0.084598772
-0.10700246 0.23456599 -0.08913032
-0.093852215 0.23702706 -0.084695496
-0.085592479 0.23496599 -0.084885657
-0.074553393 0.23516116 -0.084248394
-0.064653829 0.2333024 -0.085318342
-0.05502921 0.23273325 -0.08343932
-0.046018615 0.23273841 -0.085147165
-0.035533719 0.2312575 -0.080664031
0.038851019 0.231117 -0.082211785
0.046274766 0.23365395 -0.085676536
0.055067379 0.23544188 -0.085212946
0.064812176 0.23448481 -0.08443217
0.074014619 0.23712564 -0.084496319
0.087481692 0.23885749 -0.085626066
0.096447118 0.23692602 -0.087142244
-0.08456827 0.24188851 -0.086075619
-0.075119711 0.24073879 -0.08422149
0.049292203 0.24059506 -0.085770331
0.05224961 0.24118108 -0.08894176
0.065044418 0.24204476 -0.086668804
0.076744735 0.24541202 -0.085136853
0.085364528 0.2444324 -0.084494814
0.094839305 0.24483371 -0.084234238
0.10433131 0.24491324 -0.084381193
0.11531848 0.24633797 -0.085727632
0.12371892 0.24552864 -0.084928326
0.13518208 0.24818787 -0.087483168
0.15518749 0.24797182 -0.086094998
0.085464045 0.25077483 -0.085653506
0.095249131 0.25084591 -0.085582316
0.10357863 0.25370097 -0.083499014
0.11762895 0.25067699 -0.085316345
0.12753744 0.25232425 -0.08540611
0.13546525 0.25370917 -0.085790917
0.15867405 0.25053298 -0.084936038
0.16037983 0.25407791 -0.08970885
-0.080527909 0.22956455 -0.074431397
-0.065178923 0.22592525 -0.073981121
-0.044977438 0.22576554 -0.075151056
-0.11492313 0.2397493 -0.070378497
-0.10422342 0.2365942 -0.075015604
-0.093283825 0.23636672 -0.075638458
-0.084443569 0.23476218 -0.074962206
-0.075791314 0.23517461 -0.075098626
-0.064683691 0.23471019 -0.075714491
-0.054727446 0.23401788 -0.074748643
-0.044761162 0.23181044 -0.075827621
-0.037369706 0.23304962 -0.074591182
0.0091557447 0.23139751 -0.070927337
0.015330082 0.2335622 -0.071889274
0.024866233 0.23448142 -0.074352913
0.034859337 0.2353466 -0.074904129
0.045656946 0.23475242 -0.075778008
0.052928723 0.23621404 -0.075282298
0.062180527 0.23455523 -0.074876361
0.074857034 0.23689587 -0.075839713
0.10459287 0.23688112 -0.076739237
0.1164921 0.23871011 -0.073338978
0.13097629 0.23785725 -0.074904323
-0.084894173 0.24296948 -0.07499896
-0.073931716 0.24237752 -0.074176796
-0.053067334 0.24095853 -0.073019408
-0.048304703 0.24061093 -0.072376028
0.019701947 0.24108228 -0.074901141
0.025739588 0.24331564 -0.073846161
0.033798084 0.24413404 -0.074075811
0.043324497 0.24317849 -0.074013419
0.054212742 0.24531999 -0.073806889
0.066375472 0.24449655 -0.075887486
0.073933803 0.2444957 -0.074143782
0.085592613 0.24362783 -0.07395561
0.093804948 0.24548618 -0.075917773
0.10629769 0.24634545 -0.074593723
0.11548676 0.24574719 -0.075240567
0.12744334 0.2464896 -0.07554771
0.13548186 0.24560615 -0.074209526
0.14102252 0.24246863 -0.070260033
0.077355243 0.25189874 -0.077340446
0.085163645 0.252 -0.07488852
0.093258224 0.25173303 -0.073503017
0.10439573 0.25327227 -0.075579531
0.11455937 0.25325459 -0.07401216
0.12436463 0.25342187 -0.075343475
0.13557133 0.2539888 -0.073974416
0.1468465 0.25651819 -0.072495654
-0.074907489 0.22817206 -0.063403763
-0.060939446 0.2261682 -0.062917769
-0.05547855 0.22604357 -0.065656334
-0.11150315 0.23819952 -0.065626301
-0.1054756 0.23802717 -0.064859785
-0.093954213 0.23573872 -0.064626038
-0.08559414 0.23736313 -0.065093786
-0.075932443 0.23535463 -0.064883828
-0.064693466 0.23536748 -0.065402992
-0.0553873 0.23493096 -0.065560915
-0.044701338 0.23403263 -0.063956089
-0.037690744 0.23217478 -0.063296877
0.016600933 0.23360407 -0.063658252
0.023708872 0.2356282 -0.066185214
0.035605066 0.23413789 -0.06450893
0.044789214 0.23614602 -0.063327059
0.054508921 0.23407409 -0.065369971
0.066317417 0.23287779 -0.066766195
0.075630069 0.23655204 -0.063738868
0.082317449 0.23575346 -0.065737873
0.093863934 0.23596168 -0.069163166
0.14072396 0.23745109 -0.066610239
-0.084522888 0.24252719 -0.06546817
-0.075260147 0.24263322 -0.065147214
-0.063568562 0.24164657 -0.06246708
-0.049356051 0.24069631 -0.060749169
0.027068829 0.2434226 -0.065612942
0.031413302 0.2415373 -0.065778442
0.046322491 0.24468903 -0.066215113
0.055038638 0.24451581 -0.067663804
0.06418515 0.24432428 -0.065524042
0.076594844 0.24422362 -0.065789156
0.085657731 0.24422787 -0.06460204
0.095502302 0.24485408 -0.065396957
0.10476592 0.2460466 -0.063660897
0.11605497 0.24686222 -0.063374251
0.12400251 0.24768806 -0.066951953
0.1349483 0.24738367 -0.06449192
0.14477342 0.24673687 -0.068084121
0.074266151 0.2536096 -0.063168705
0.093762353 0.25433043 -0.065468296
0.10368674 0.2535693 -0.063652262
0.11423421 0.25286478 -0.064542994
0.12588802 0.25470927 -0.065082096
0.13490367 0.25314254 -0.064508162
0.14420049 0.25575846 -0.066691369
-0.075812764 0.22521676 -0.055878133
-0.064186484 0.22759159 -0.056109916
-0.11652492 0.23915897 -0.056976303
-0.10374409 0.23553133 -0.055691861
-0.091093995 0.23744734 -0.051910527
-0.083631746 0.23730485 -0.055530742
-0.075553283 0.23618624 -0.054564409
-0.063770376 0.23442701 -0.054882534
-0.054249465 0.23424575 -0.054835115
-0.045230668 0.23289745 -0.054038186
-0.036676865 0.23322219 -0.054838333
0.0021355522 0.23426844 -0.050704334
0.015881717 0.23256829 -0.055822264
0.025757102 0.23361826 -0.05489539
0.035024881 0.23491757 -0.055900913
0.044737756 0.23577911 -0.054617155
0.054533292 0.23519273 -0.055179037
0.064103723 0.23641503 -0.052651472
0.077192262 0.23468047 -0.059760995
0.085201256 0.237259 -0.057490997
0.093026116 0.23863572 -0.054442286
-0.08704225 0.24414642 -0.054963857
-0.076490432 0.2433337 -0.054885384
-0.064872704 0.24319409 -0.054108139
-0.054941028 0.24075669 -0.054964896
0.0052272058 0.24012807 -0.050354261
0.023884933 0.24369685 -0.05352563
0.035382189 0.24423969 -0.053729981
0.045033492 0.24227443 -0.053058472
0.053914141 0.24222131 -0.054107629
0.064671502 0.2447644 -0.05480231
0.077647537 0.24697183 -0.054057516
0.085427471 0.2463493 -0.056318156
0.095118932 0.24505334 -0.05479994
0.10401784 0.24381998 -0.054465152
0.11562052 0.24676754 -0.054865599
0.12344994 0.24721061 -0.054026604
0.075355165 0.25422588 -0.056214023
0.085178122 0.2549077 -0.054943129
0.09510874 0.25448617 -0.054598372
0.1056875 0.25424698 -0.054991689
0.11533708 0.25521636 -0.054795064
0.12419058 0.25454324 -0.056583956
0.13447973 0.25439849 -0.057600878
-0.081314728 0.22690234 -0.045245674
-0.065931939 0.22864766 -0.044209205
-0.092009529 0.23637015 -0.044765707
-0.083542839 0.23546618 -0.045493927
-0.076115496 0.23751456 -0.044925936
-0.065309457 0.23479474 -0.045297924
-0.05450438 0.23476771 -0.044480253
-0.045281243 0.23521906 -0.045966189
-0.036810391 0.23279284 -0.045414101
0.0052318722 0.23393844 -0.044094466
0.015569387 0.23363277 -0.043692503
0.025300516 0.23363829 -0.044094633
0.03517824 0.23527057 -0.046395205
0.044524383 0.23598066 -0.044192102
0.055618558 0.23732567 -0.045185283
0.073765628 0.23611841 -0.044791676
0.10862257 0.23897852 -0.0435507
-0.0852229 0.24545996 -0.044193026
-0.076839834 0.24463384 -0.043670312
-0.066285722 0.2428036 -0.044152465
-0.055879395 0.24172467 -0.044466224
-0.048653439 0.24202706 -0.048415244
0.0060588554 0.24440989 -0.044576596
0.012448488 0.24063465 -0.043280989
0.025475692 0.24159203 -0.046420332
0.035158854 0.24317686 -0.045043983
0.044936072 0.24311276 -0.044989415
0.054381303 0.2431765 -0.044838842
0.064872928 0.24465951 -0.044469491
0.075628556 0.24488156 -0.044580542
0.085002065 0.24543038 -0.044310734
0.09408614 0.24886048 -0.043842658
0.10386316 0.24404371 -0.046052869
0.11241262 0.24809286 -0.045354512
0.069636039 0.25155258 -0.040736351
0.070613913 0.25348008 -0.04974249
0.085835889 0.2540645 -0.046642862
0.096025936 0.25531432 -0.047330525
0.10432871 0.25418508 -0.045593359
0.11174543 0.25407004 -0.044449627
0.12205078 0.25376529 -0.046513934
-0.083069108 0.22978804 -0.030867139
-0.11294013 0.23960541 -0.035338826
-0.091179997 0.23299137 -0.033905488
-0.083678558 0.23783521 -0.034006976
-0.07345105 0.23596148 -0.033719968
-0.065290228 0.23517464 -0.034580443
-0.053876709 0.23481438 -0.034494586
-0.04517493 0.23352651 -0.035238944
-0.037870992 0.23366284 -0.036033321
-0.002838349 0.23421971 -0.032551464
0.0044498891 0.23414247 -0.0355446
0.015209051 0.23502538 -0.034064509
0.024786102 0.23375702 -0.034379419
0.035177503 0.23550344 -0.03587484
0.045661651 0.23446415 -0.035750728
0.053485375 0.23543875 -0.035501875
0.084296532 0.23702812 -0.033668377
-0.09632203 0.2448158 -0.034161586
-0.085502356 0.24491215 -0.03503304
-0.074651681 0.24479094 -0.034921043
-0.064949781 0.24431357 -0.035436824
-0.057768118 0.24063393 -0.034373362
-0.0023119408 0.24450716 -0.032241169
0.0042391629 0.24489655 -0.033591617
0.015873585 0.24211253 -0.034463651
0.024951665 0.24567416 -0.033540919
0.03463947 0.24446352 -0.034310073
0.045360349 0.24509211 -0.035222422
0.055618074 0.24378362 -0.035021592
0.065100752 0.2442818 -0.034114406
0.075365342 0.24571228 -0.036202755
0.084346823 0.24479559 -0.034234229
0.096128985 0.24740057 -0.034787849
0.11757837 0.2475177 -0.031441327
-0.0036100151 0.25162801 -0.030839875
0.010101434 0.25006911 -0.037401553
0.026048837 0.25127524 -0.036255538
0.068526968 0.25031877 -0.032051586
0.071950138 0.25171649 -0.033007443
0.086451113 0.25194526 -0.036698796
0.094978631 0.25308153 -0.036080305
0.10603511 0.25438705 -0.035128206
0.11483119 0.25481674 -0.035666689
0.12371197 0.25731602 -0.035688184
-0.081860922 0.22930658 -0.028652348
-0.078667879 0.22941664 -0.022918919
-0.11112742 0.238204 -0.026554575
-0.092610784 0.23407713 -0.025159549
-0.085688114 0.23846106 -0.027140221
-0.074154362 0.23522918 -0.024624852
-0.064745583 0.23591171 -0.023502108
-0.054243609 0.23585673 -0.025624705
-0.045692723 0.23356326 -0.025788594
-0.010672046 0.23525983 -0.021143373
-0.005585616 0.23492146 -0.025352422
0.0043784198 0.2351542 -0.024392756
0.014631053 0.23586081 -0.024746627
0.025143038 0.23606952 -0.025039572
0.034842052 0.23661183 -0.025039403
0.045426857 0.23627865 -0.024973828
-0.10425059 0.24438895 -0.025451897
-0.094799541 0.24596022 -0.024758898
-0.084726609 0.24595343 -0.025693031
-0.075543739 0.24484763 -0.024736581
-0.065579355 0.2433468 -0.024889344
-0.056382187 0.24238808 -0.022455843
-0.0042065484 0.24466997 -0.024085378
0.0039590122 0.24516851 -0.025326597
0.01522891 0.24398214 -0.025458531
0.024728902 0.24493383 -0.025711194
0.035933718 0.24480322 -0.024306355
0.045925546 0.24319398 -0.025648482
0.055031657 0.24488325 -0.023793118
0.065091036 0.2445069 -0.024437366
0.072430879 0.24493968 -0.023477875
0.084291533 0.24513903 -0.024219077
0.094621226 0.24327575 -0.026022485
0.10238438 0.24835685 -0.025867296
0.11780308 0.24692883 -0.025697727
0.0042708591 0.25256974 -0.024402047
0.013627374 0.25266981 -0.02296555
0.023113485 0.25253916 -0.023291413
0.035424627 0.25285581 -0.023412948
0.041673046 0.25254089 -0.025878768
0.058236629 0.25164917 -0.021734605
0.069181524 0.25073189 -0.028135378
0.077027299 0.25182709 -0.023570636
0.084115975 0.25139877 -0.02626076
0.096494891 0.25243935 -0.024313509
0.10749764 0.25727093 -0.026114358
0.11922716 0.25805348 -0.02738082
0.12136135 0.25617823 -0.028225701
-0.09474393 0.23836149 -0.016907675
-0.085321985 0.23691766 -0.014129723
-0.075428762 0.23672049 -0.014825483
-0.065528564 0.23604392 -0.015261002
-0.054510679 0.23485765 -0.01469229
-0.04809285 0.2350654 -0.014723093
-0.020397406 0.2369601 -0.01093941
-0.015158564 0.23451081 -0.014452132
-0.006512485 0.23546085 -0.015349013
0.0046367175 0.23602164 -0.015342642
0.013713324 0.23588257 -0.014849443
0.024486914 0.23640668 -0.01519983
0.034597319 0.23551618 -0.015446183
0.045095038 0.23720688 -0.01444092
0.081641927 0.23878859 -0.017736813
-0.10299492 0.24475598 -0.019145632
-0.094691247 0.24588799 -0.016884916
-0.083791643 0.24544178 -0.015039078
-0.075166307 0.2457146 -0.014411764
-0.06524469 0.24494103 -0.014962517
-0.055180859 0.24246085 -0.015320716
-0.020974999 0.24244268 -0.010902795
-0.014740554 0.2430096 -0.013610994
-0.0055857669 0.24491788 -0.015464247
0.0044634081 0.24509864 -0.015481449
0.015721278 0.24361743 -0.01523484
0.02444056 0.24454573 -0.014782848
0.035276491 0.24380633 -0.014448908
0.045011114 0.24496923 -0.015672106
0.054384075 0.24464139 -0.015185236
0.064906791 0.24534303 -0.015337501
0.075365655 0.24519128 -0.015467411
0.083774887 0.2469525 -0.01730263
0.092397928 0.24930334 -0.019248473
0.016453335 0.25204659 -0.014158481
0.025748154 0.25409955 -0.016256802
0.035135824 0.25410238 -0.01448802
0.042232417 0.25157142 -0.018332802
0.055643313 0.25178427 -0.01098338
0.06812153 0.25105089 -0.019825831
0.071904331 0.25151932 -0.016353175
0.087167494 0.2532503 -0.016186943
0.11345664 0.25930974 -0.016628554
-0.072372541 0.23582035 -0.0081667118
-0.063947365 0.23472646 -0.0062916265
-0.054507609 0.23608807 -0.0060795117
-0.044820972 0.23531079 -0.0037074755
-0.03608175 0.23404454 -0.003041151
-0.024443829 0.23627518 -0.0030644322
-0.015261467 0.23551331 -0.0057749562
-0.0052273441 0.23477682 -0.0058226921
0.0029809726 0.23554181 -0.0046761413
0.014335801 0.23593217 -0.0054855989
0.024776857 0.23627357 -0.0052534658
0.033642873 0.23647748 -0.0068012215
0.045382287 0.23721619 -0.004367514
-0.074182197 0.24794462 -0.0078595597
-0.064514473 0.24543868 -0.0062726401
-0.054809768 0.24488856 -0.0039434647
-0.046133708 0.24461406 -0.0017348446
-0.033995479 0.24490519 -0.0008621997
-0.025115902 0.24515362 -0.0046408479
-0.014418512 0.2438671 -0.0051097427
-0.0058041299 0.24515323 -0.004913616
0.0040646438 0.24611096 -0.0054510306
0.014902654 0.24378113 -0.0052647442
0.024774618 0.2444479 -0.0049566021
0.03500551 0.24393003 -0.0051974333
0.045306776 0.246034 -0.0065368311
0.055476777 0.24612315 -0.006440233
0.064236119 0.24469687 -0.0086073605
-0.0058690929 0.2529251 -0.0056518172
0.01324864 0.25212729 -0.0033306931
0.026661148 0.2542071 -0.0061878124
0.035465408 0.25462282 -0.0052965926
0.046187747 0.25291902 -0.0046336325
0.056878604 0.25369126 -0.0026737065
0.067485407 0.25314325 -0.0085155293
-0.04146323 0.23661403 0.0003817479
-0.034343287 0.23528026 0.0020786456
-0.025134532 0.23469901 0.0050380654
-0.015363443 0.23546861 0.005593067
-0.0059852637 0.23623089 0.0047232704
0.0027310371 0.23690142 0.0038401771
0.015395105 0.23741083 0.0048742844
-0.042017683 0.2440313 0.00034022168
-0.035115056 0.24441461 0.0017078393
-0.025523998 0.24372324 0.0046871197
-0.014811684 0.24475993 0.0049774614
-0.0054140002 0.24488184 0.0058893692
0.0036613066 0.24601078 0.0054444838
0.013788043 0.24378499 0.0048133605
0.024689145 0.24392393 0.0045828768
0.03442217 0.24697524 0.0035507793
0.044415776 0.24556252 0.0034672178
0.053336725 0.24759021 0.0008493163
-0.02606298 0.25217709 0.004218875
-0.0053038225 0.25326291 0.0034637866
0.0054529547 0.25419092 0.0044339392
0.015602256 0.25283045 0.0043359795
0.02466117 0.25411901 0.0054365806
0.035704795 0.25439462 0.0044625998
0.045883525 0.25405231 0.0038432281
0.053263899 0.2522428 0.0008584453
3.59673 0.45479563 0
-0.021042736 0.23423526 0.010841454
-0.014212638 0.2349195 0.014021417
-0.02143353 0.24434596 0.01112982
-0.014289193 0.24322084 0.013971934
-0.0053258883 0.24512786 0.0144765
0.004026399 0.24511956 0.014278837
0.01426504 0.24466901 0.014659276
0.024288367 0.24485449 0.014765132
0.032269657 0.24486236 0.011481617
-0.0057046325 0.25438687 0.014577182
0.0057296799 0.25363329 0.013448936
0.01759172 0.25098762 0.015429175
0.025630912 0.25561798 0.014302415
0.033775851 0.25638303 0.013685334
-0.010838579 0.24784413 0.020792931
-0.0045386963 0.24431662 0.023666035
0.003988103 0.24491218 0.024560792
0.013504682 0.24513052 0.025917536
0.023539726 0.2452158 0.024791766
-0.0022742634 0.25394839 0.021183824
0.0030461845 0.25427371 0.026136687
0.010213207 0.25313216 0.02191815
0.027260188 0.25591153 0.025924942
-0.0041626706 0.24337535 0.031330224
0.005919714 0.24575189 0.034357458
0.013055066 0.24701753 0.036717426
0.022766259 0.24719465 0.031364687
0.0078806235 0.25425431 0.033201084
0.014264022 0.25511709 0.034405675
0.0249763 0.25624743 0.033483583
0.0024741418 0.24260591 0.046085529
0.015872028 0.24364652 0.043659125
0.015469617 0.25438094 0.040744424
0.020878542 0.25926989 0.047672097
0.0032094447 0.24043547 0.05186924
0.018011332 0.24112141 0.053912371
0.020590974 0.24218196 0.053684443
0.022188816 0.25558764 0.054113101
0.019640053 0.24263982 0.068783894
0.021092037 0.24400851 0.062457059
0.022171132 0.25634533 0.066943094
3.6806231 0.46441105 0.065030873
0.020143189 0.2509754 0.073860168
0.012968967 0.24366592 0.088484943
0.017583665 0.25833759 0.085244372
0.014397517 0.25519812 0.090125866
3.1365929 0.45844531 0.16673698
3.4139626 0.46509588 0.24186656
2.9414179 0.49857184 0.79979742
2.9186583 0.49703166 0.84931552
3.1364472 0.49981526 0.85205537
2.9177947 0.49902576 0.9052161
3.1279657 0.5005796 0.90933341
2.718518 0.49792907 0.95071137
2.8933163 0.49745929 0.95400119
2.692486 0.49610254 0.99537569
2.8783391 0.49750572 1.0057422
1.7189307 0.42478696 1.0149251
2.675895 0.49598393 1.0433064
1.8759327 0.45627552 1.0616629
2.8717561 0.49901724 1.0606246
1.9057027 0.44319183 1.0781647
2.6575606 0.4956961 1.0905815
1.794746 0.44556808 1.1015689
2.6302342 0.49398762 1.1340511
2.5093317 0.50076717 1.1355296
2.132966 0.46569163 1.1552444
0.74019581 0.38866714 1.1775417
2.4697859 0.49681038 1.1706978
2.6238832 0.49602097 1.1865312
0.72582132 0.39085177 1.1997191
0.78536189 0.40148658 1.2016536
2.4652665 0.49944311 1.2221174
0.71837354 0.39691141 1.2341468
2.6039903 0.4958517 1.2332784
0.72750539 0.38848114 1.2493448
1.5172863 0.4499633 1.2569937
2.4193003 0.49447134 1.2531247
0.70754069 0.40166992 1.2644676
0.42604181 0.37756029 1.2798636
0.71255666 0.39105937 1.2731555
2.3564889 0.48635149 1.2740936
0.780334 0.40467435 1.2869576
0.81308275 0.41059473 1.2897778
0.45712888 0.38605052 1.2982374
0.69654107 0.39338034 1.2959512
1.5050851 0.43420473 1.2918419
1.573351 0.44686571 1.3023939
0.73790991 0.3904632 1.3170686
0.46647689 0.38084337 1.323921
0.49258119 0.38442606 1.325229
0.68223125 0.39694661 1.3228229
0.52322382 0.39110965 1.3367476
0.52950478 0.38241211 1.3522936
0.67749673 0.39250544 1.3697575
0.6742388 0.40451249 1.3633634
0.56591499 0.39215139 1.374635
0.51522535 0.38794085 1.3842191
0.60366648 0.4021357 1.3969666
0.66080326 0.40956837 1.3952932
0.60934705 0.39183056 1.4097254
0.63560027 0.39399675 1.403833
0.66312009 0.39688295 1.4000435
0.79637098 0.4048835 1.4183261
