# .PCD v0.7 - Point Cloud Data file format
VERSION 0.7
FIELDS x y z
SIZE 4 4 4
TYPE F F F
COUNT 1 1 1
WIDTH 1355
HEIGHT 1
VIEWPOINT 0 0 0 1 0 0 0
POINTS 1355
DATA ascii
-2.5508137 -2.928477 -1.3921227
-2.5579073 -2.8852358 -1.3960547
-2.4310286 -2.9191055 -1.381055
-2.4304309 -2.8671615 -1.3807099
-2.4298418 -2.8161702 -1.3803698
-2.4292815 -2.7661214 -1.3800462
-2.3200178 -2.8135993 -1.3708305
-2.3232801 -2.7195671 -1.3727908
-2.3310945 -2.6809602 -1.3774861
-2.3099594 -3.0074303 -1.3647869
-2.3165963 -2.9629893 -1.3687748
-2.3111634 -2.9039013 -1.3655103
-2.3073637 -2.8480806 -1.3632272
-2.3162556 -2.7596593 -1.3685701
-2.2206147 -2.7211618 -1.3637476
-2.2211428 -2.5809615 -1.3640777
-2.2115691 -2.9618084 -1.3580954
-2.2055895 -2.901489 -1.354359
-2.203995 -2.8482125 -1.3533626
-2.2069378 -2.8018301 -1.3552015
-2.2122555 -2.7592657 -1.3585242
-2.1238966 -2.6309121 -1.3547659
-2.2094026 -2.6129897 -1.3567415
-2.111604 -2.9628561 -1.3467829
-2.1029823 -2.8981874 -1.3411839
-2.1089833 -2.8550615 -1.345081
-2.0260625 -2.824101 -1.3414328
-2.1111801 -2.8075426 -1.3465075
-2.112282 -2.7594569 -1.3472233
-2.1128426 -2.7115672 -1.3475872
-2.0264449 -2.6774015 -1.3416907
-2.0292048 -2.6338491 -1.3435522
-2.0331864 -2.5926411 -1.3462379
-2.0346472 -2.5041208 -1.3472232
-2.017009 -2.9671395 -1.3353262
-1.9387696 -2.9386144 -1.3317301
-2.0217938 -2.921102 -1.3385534
-1.9403762 -2.8883154 -1.3328551
-2.0207381 -2.8675339 -1.3378414
-1.9398497 -2.8358965 -1.3324865
-1.9371434 -2.7814157 -1.3305916
-2.0227551 -2.7694583 -1.3392019
-1.938596 -2.7340574 -1.3316085
-2.0199118 -2.7166035 -1.3372841
-1.940462 -2.6406548 -1.3329152
-1.945825 -2.6013021 -1.3366704
-1.9496673 -2.5605662 -1.3393608
-2.0224609 -2.5334201 -1.3390033
-1.8670748 -2.5267007 -1.3300589
-1.9486072 -2.5140998 -1.3386185
-1.9391388 -2.4577005 -1.3319886
-1.8533579 -2.8957822 -1.320093
-1.8608733 -2.8040626 -1.3255533
-1.8643888 -2.7591901 -1.3281075
-1.8627335 -2.7075655 -1.3269048
-1.9341462 -2.679338 -1.3284928
-1.8636452 -2.6607542 -1.3275672
-1.8555472 -2.6020589 -1.3216835
-1.8628463 -2.5662153 -1.3269867
-1.9173791 -3.0135818 -1.3167524
-1.8463763 -2.937876 -1.3150206
-1.7783341 -2.9190128 -1.3129892
-1.8483034 -2.8357663 -1.3164208
-1.7754894 -2.8095682 -1.3108456
-1.7808354 -2.7673638 -1.3148741
-1.7776877 -2.7128267 -1.3125021
-1.7840773 -2.6740069 -1.317317
-1.7153571 -2.6526875 -1.312479
-1.7803082 -2.6207035 -1.3144767
-1.7157325 -2.6058106 -1.3127724
-1.782158 -2.5768163 -1.3158706
-1.7130626 -2.5553019 -1.3106865
-1.7840567 -2.5338476 -1.3173015
-1.700801 -2.9352498 -1.3011066
-1.7094465 -2.8962057 -1.3078612
-1.7735791 -2.8582144 -1.309406
-1.7091491 -2.8428221 -1.3076289
-1.7068102 -2.7872908 -1.3058015
-1.706265 -2.7359734 -1.3053756
-1.6430641 -2.7203445 -1.3022077
-1.7061267 -2.6864507 -1.3052675
-1.6420707 -2.6694813 -1.3014032
-1.5845568 -2.3874209 -1.3006756
-1.585107 -2.3458819 -1.3011372
-1.5902995 -2.3120062 -1.3054943
-1.5867535 -2.2260203 -1.3025188
-1.5918778 -2.1939626 -1.3068187
-1.5866764 -2.1481795 -1.3024541
-1.5937568 -2.1199505 -1.3083953
-1.5952334 -2.0479574 -1.3096344
-1.6377349 -2.9194536 -1.2978921
-1.6353258 -2.8613093 -1.2959414
-1.5747488 -2.847497 -1.2924457
-1.6387264 -2.8147011 -1.298695
-1.5777447 -2.8003235 -1.2949595
-1.6369435 -2.7602527 -1.2972512
-1.576586 -2.7468727 -1.2939873
-1.5789834 -2.7008545 -1.2959989
-1.5776224 -2.6494422 -1.294857
-1.5785257 -2.6029999 -1.2956148
-1.5193617 -2.5896575 -1.2912383
-1.6398644 -2.5707989 -1.2996166
-1.5755912 -2.5512652 -1.2931526
-1.522179 -2.5475614 -1.2936873
-1.6352292 -2.5175626 -1.295863
-1.5836571 -2.5184526 -1.2999207
-1.5831214 -2.4725363 -1.2994711
-1.5193782 -2.4521279 -1.2912526
-1.5212921 -2.4113164 -1.2929164
-1.5232705 -2.3714178 -1.2946361
-1.5220419 -2.2860153 -1.2935683
-1.4681726 -2.2797134 -1.2918376
-1.581321 -2.2581298 -1.2979604
-1.5207605 -2.2436123 -1.2924544
-1.4670286 -2.2374797 -1.2908076
-1.5281278 -2.2147944 -1.2988586
-1.4693892 -2.2014422 -1.2929331
-1.5209553 -2.1653364 -1.2926236
-1.4704006 -2.1640377 -1.2938437
-1.5225142 -2.1293824 -1.2939788
-1.529431 -2.1015403 -1.2999914
-1.4677609 -2.0845587 -1.2914671
-1.5229907 -2.0557201 -1.2943931
-1.4722327 -2.0541859 -1.2954934
-1.4170398 -2.0448649 -1.2907211
-1.5255868 -2.0230525 -1.2966497
-1.4691956 -2.0137994 -1.2927588
-1.4746031 -1.9857706 -1.2976277
-1.5685209 -2.9447441 -1.2872199
-1.5129713 -2.9381378 -1.2856832
-1.5686046 -2.8899007 -1.2872901
-1.514534 -2.8859172 -1.2870417
-1.4565425 -2.8723352 -1.2813659
-1.5159585 -2.8347087 -1.28828
-1.5111276 -2.7731082 -1.2840805
-1.5166929 -2.7320671 -1.2889184
-1.5155487 -2.6798587 -1.2879237
-1.461128 -2.6727204 -1.2854947
-1.5129255 -2.6262929 -1.2856433
-1.4635928 -2.6281285 -1.287714
-1.4651443 -2.5828884 -1.2891109
-1.4621501 -2.5306766 -1.286415
-1.4062462 -2.5187294 -1.2806559
-1.516102 -2.4915147 -1.2884046
-1.4599643 -2.4811008 -1.2844468
-1.4073402 -2.474879 -1.2816761
-1.460024 -2.4364698 -1.2845007
-1.4120351 -2.4382908 -1.2860541
-1.5687988 -2.4061456 -1.2874531
-1.460085 -2.3928082 -1.2845557
-1.4653645 -2.3585947 -1.2893093
-1.410684 -2.3490415 -1.2847942
-1.4636246 -2.3137186 -1.2877426
-1.4104809 -2.3066549 -1.2846048
-1.3580856 -2.2990675 -1.2802284
-1.4111544 -2.2262552 -1.2852328
-1.3598676 -2.2205665 -1.2819492
-1.4135238 -2.1904635 -1.2874423
-1.4097294 -2.1458013 -1.283904
-1.3610443 -2.1442122 -1.2830856
-1.4625049 -2.1142476 -1.2867343
-1.4128145 -2.1125484 -1.286781
-1.413607 -2.0764396 -1.2875199
-1.359283 -2.0297945 -1.2813847
-1.408599 -1.9966867 -1.2828499
-1.3599116 -1.9949422 -1.2819917
-1.4159101 -1.971889 -1.2896676
-1.3631778 -1.9645854 -1.2851459
-1.4122478 -1.9320941 -1.2862524
-1.4532292 -2.921016 -1.2783825
-1.3949299 -2.9041135 -1.2701032
-1.4003006 -2.8598392 -1.2751116
-1.347725 -2.8526566 -1.2702234
-1.4521805 -2.8097939 -1.2774383
-1.4003057 -2.8057137 -1.2751163
-1.3499029 -2.8028417 -1.2723264
-1.4530874 -2.7590477 -1.278255
-1.3976569 -2.7476909 -1.2726462
-1.4538798 -2.7093136 -1.2789683
-1.4019264 -2.7046952 -1.2766275
-1.3976852 -2.6463432 -1.2726727
-1.3487775 -2.6454377 -1.2712396
-1.4048443 -2.6109564 -1.2793485
-1.4042634 -2.561939 -1.2788069
-1.3559752 -2.5621471 -1.2781904
-1.3486768 -2.5013864 -1.2711425
-1.3576041 -2.4721506 -1.2797635
-1.3030288 -2.4585288 -1.271209
-1.3505032 -2.4143314 -1.2729061
-1.4054443 -2.3830004 -1.2799081
-1.3551816 -2.3789425 -1.277424
-1.3047222 -2.3728342 -1.2729024
-1.4042039 -2.2552638 -1.2787514
-1.260548 -2.2500432 -1.2729654
-1.352079 -2.2477803 -1.274428
-1.3020605 -2.2421093 -1.2702407
-1.3074965 -2.211293 -1.2756768
-1.3103796 -2.1766863 -1.2785598
-1.302833 -2.1254518 -1.2710131
-1.3565429 -2.0991576 -1.2787387
-1.3063531 -2.0934424 -1.2745333
-1.3067667 -2.0570178 -1.274947
-1.2578338 -2.0517387 -1.2701547
-1.3101435 -2.0259483 -1.2783237
-1.2584453 -2.0163853 -1.270788
-1.3060712 -1.9838964 -1.2742513
-1.2615138 -1.9856354 -1.2739655
-1.3117082 -1.9574623 -1.2798884
-1.3107914 -1.9216135 -1.2789716
-1.2587694 -1.9119473 -1.2711235
-1.3085506 -1.8845015 -1.2767308
-1.2167585 -1.8825313 -1.2719028
-1.2158928 -1.8480296 -1.2709745
-1.2175525 -1.8180133 -1.2727543
-1.2648339 -1.7895404 -1.2774036
-1.3870716 -3.0022533 -1.2627752
-1.3384162 -3.0038815 -1.2612338
-1.3433206 -2.9561512 -1.26597
-1.3396125 -2.8908246 -1.2623891
-1.2931225 -2.8947942 -1.2613027
-1.2951752 -2.8433015 -1.2633554
-1.2490069 -2.8461676 -1.2610142
-1.2939963 -2.7861133 -1.2621765
-1.3431118 -2.7357862 -1.2657683
-1.2929922 -2.7308438 -1.2611724
-1.3429174 -2.6839497 -1.2655807
-1.2957556 -2.6849363 -1.2639358
-1.2510592 -2.6897099 -1.2631394
-1.2948478 -2.6325803 -1.263028
-1.2488604 -2.6340961 -1.2608625
-1.2542881 -2.547431 -1.2664831
-1.2938604 -2.5334582 -1.2620406
-1.2971717 -2.4931223 -1.2653519
-1.2063936 -2.495575 -1.2607878
-1.2484926 -2.4884279 -1.2604816
-1.2091054 -2.4548047 -1.263696
-1.2486118 -2.4427145 -1.2606051
-1.2991965 -2.4064143 -1.2673767
-1.2532314 -2.4068382 -1.2653888
-1.2062136 -2.4036422 -1.2605947
-1.2512412 -2.3590565 -1.2633278
-1.2542658 -2.3218265 -1.2664599
-1.2075052 -2.3188956 -1.2619799
-1.301625 -2.2823524 -1.2698052
-1.2098179 -2.2811418 -1.26446
-1.2526582 -2.2768238 -1.2647953
-1.2075752 -2.2356288 -1.2620549
-1.2078561 -2.1958303 -1.262356
-1.2120479 -2.1639702 -1.2668514
-1.1689668 -2.1272464 -1.2648276
-1.2099291 -2.0835927 -1.2645792
-1.2523772 -2.0796273 -1.2645043
-1.1681757 -2.0504658 -1.263949
-1.2087356 -2.0444579 -1.2632992
-1.1703451 -1.9819448 -1.2663584
-1.2120548 -1.9431026 -1.2668588
-1.1647576 -1.9373959 -1.2601528
-1.166762 -1.872802 -1.2623789
-1.1691585 -1.8436173 -1.2650404
-1.1699218 -1.81234 -1.2658882
-1.1699448 -1.7804674 -1.2659138
-1.2122561 -1.7781132 -1.2670746
-1.1692166 -1.7480226 -1.2651051
-1.287576 -2.939631 -1.2557561
-1.2393343 -2.9379678 -1.250998
-1.2453089 -2.8941488 -1.2571849
-1.197313 -2.8341808 -1.2510501
-1.200223 -2.7856779 -1.2541707
-1.1561925 -2.7895701 -1.2506404
-1.2425148 -2.7763906 -1.2542915
-1.2473806 -2.7338371 -1.2593302
-1.2015485 -2.7347906 -1.255592
-1.1979034 -2.6740227 -1.2516832
-1.204168 -2.6369107 -1.258401
-1.1166105 -2.5913229 -1.2505515
-1.1567037 -2.5816195 -1.2512082
-1.2013561 -2.5323424 -1.2553856
-1.158814 -2.5374184 -1.2535518
-1.1629065 -2.4519198 -1.2580971
-1.1207334 -2.4560421 -1.2552943
-1.1641442 -2.4089792 -1.2594715
-1.1185439 -2.3607206 -1.2527755
-1.2032118 -2.3535495 -1.2573758
-1.1622013 -2.3171513 -1.2573137
-1.1195953 -2.2767427 -1.253985
-1.1609216 -2.2309461 -1.2558925
-1.1169633 -2.2298172 -1.2509574
-1.1600735 -2.1889274 -1.2549506
-1.1216588 -2.1587832 -1.2563589
-1.0796086 -2.1599364 -1.2521554
-1.118625 -2.1140411 -1.252869
-1.0779946 -2.1176159 -1.2502319
-1.1619409 -2.0764244 -1.2570246
-1.1192942 -2.0773201 -1.2536387
-1.1225501 -2.0461476 -1.2573842
-1.0419922 -2.0163517 -1.2517816
-1.2053796 -2.0024977 -1.2597004
-1.1611592 -2.0016937 -1.2561563
-1.1175226 -2.0004952 -1.2516007
-1.1235632 -1.975668 -1.2585496
-1.0788023 -1.9712167 -1.2511946
-1.122088 -1.9380053 -1.2568525
-1.0782918 -1.9352031 -1.2505862
-1.1609788 -1.8968636 -1.2559561
-1.0847346 -1.8452859 -1.2582643
-1.0437518 -1.8463168 -1.2539545
-1.1222509 -1.8372636 -1.2570401
-1.0843498 -1.8120561 -1.2578057
-1.0422163 -1.810964 -1.2520585
-1.0433493 -1.7809591 -1.2534574
-1.040799 -1.7452133 -1.2503082
-1.0043532 -1.7216933 -1.250053
-1.1243035 -1.7143747 -1.2594013
-1.0828056 -1.7154735 -1.2559655
-1.0445166 -1.6606576 -1.2548989
-1.0051963 -1.6050048 -1.2511322
-1.1515874 -3.0117822 -1.2455258
-1.1938381 -3.001265 -1.2473238
-1.1519084 -2.9516146 -1.2458823
-1.1931458 -2.9393458 -1.2465812
-1.1928624 -2.8802502 -1.2462773
-1.1091402 -2.8405643 -1.2419579
-1.1472658 -2.8233991 -1.2407262
-1.1099863 -2.786272 -1.2429312
-1.1552385 -2.7328298 -1.2495809
-1.1123532 -2.7372947 -1.245654
-1.1114637 -2.6816871 -1.2446307
-1.1533518 -2.6754889 -1.2474854
-1.1135483 -2.6347508 -1.2470288
-1.0699048 -2.6347938 -1.2405909
-1.1530713 -2.6234429 -1.2471738
-1.0751354 -2.5965521 -1.2468244
-1.0744177 -2.5449545 -1.2459692
-1.1105707 -2.5280051 -1.2436035
-1.1152651 -2.4907515 -1.2490039
-1.0739138 -2.4952469 -1.2453686
-1.1532962 -2.477705 -1.2474236
-1.0740135 -2.4482388 -1.2454875
-1.0363793 -2.4131961 -1.2448503
-1.1161058 -2.4000823 -1.2499709
-1.070392 -2.3940055 -1.2411715
-1.0706694 -2.3498921 -1.2415022
-1.1159896 -2.3117726 -1.2498372
-1.0765069 -2.3189838 -1.2484589
-1.0334381 -2.3169129 -1.2412181
-1.0764122 -2.275964 -1.2483462
-1.0342184 -2.2756274 -1.2421818
-1.073624 -2.2283046 -1.2450233
-1.0005893 -2.2092273 -1.2452353
-1.1154779 -2.1863132 -1.2492486
-1.0738658 -2.1880867 -1.2453114
-1.0384899 -2.1615393 -1.2474567
-1.0004843 -2.1684322 -1.2451011
-1.0359186 -2.1169081 -1.2442813
-1.0014414 -2.0921352 -1.2463261
-1.0356494 -2.0780334 -1.2439489
-1.0727879 -2.069247 -1.2440269
-1.075617 -2.0375056 -1.2473984
-1.033466 -2.036201 -1.2412525
-0.99953759 -2.0133374 -1.2438893
-1.0744925 -1.998904 -1.2460583
-0.92749006 -1.9932212 -1.2401748
-1.0379701 -1.9725031 -1.2468147
-0.99729192 -1.9726689 -1.241015
-0.9616068 -1.9460919 -1.2401568
-1.0384011 -1.9381166 -1.247347
-0.99781942 -1.9383948 -1.2416902
-1.0401692 -1.9069139 -1.2495306
-1.0387843 -1.8705299 -1.2478201
-1.0004001 -1.8748311 -1.2449932
-0.96206921 -1.8780708 -1.2407703
-1.0004858 -1.8417108 -1.2451029
-0.99662101 -1.8019941 -1.2401562
-0.96264213 -1.7808975 -1.2415307
-0.9998219 -1.7759078 -1.2442533
-1.0770999 -1.7680106 -1.2491657
-0.92812675 -1.758311 -1.2410511
-1.0007392 -1.7461845 -1.2454274
-1.0405357 -1.7140298 -1.2499831
-1.0026951 -1.6885309 -1.2479308
-0.96564507 -1.663766 -1.2455157
-0.92801076 -1.6666335 -1.2408915
-0.99990278 -1.6541117 -1.2443568
-1.0037221 -1.6313157 -1.2492452
-0.96696317 -1.6367513 -1.2472649
-0.89489555 -1.5898263 -1.2411814
-0.92778832 -1.5797898 -1.2405853
-1.1036812 -3.0054078 -1.235678
-1.1064768 -2.9514456 -1.238894
-1.0245278 -2.9086535 -1.2302148
-1.1057875 -2.8898489 -1.2381011
-1.1448234 -2.8744411 -1.2380137
-1.0276024 -2.85778 -1.2340118
-1.0638134 -2.8376186 -1.2333316
-1.0273656 -2.7992537 -1.2337192
-1.0651716 -2.7842939 -1.2349501
-1.0265652 -2.7409568 -1.2327309
-1.0683309 -2.7371535 -1.2387152
-0.99022317 -2.7027979 -1.2319673
-1.03039 -2.6966155 -1.2374542
-1.0683566 -2.6833229 -1.2387459
-1.0255865 -2.6310651 -1.2315222
-0.95559943 -2.6155651 -1.2321846
-1.0301476 -2.5913012 -1.2371547
-0.99078125 -2.5984268 -1.2326818
-0.95466256 -2.5615339 -1.2309414
-0.95833474 -2.5213029 -1.2358146
-0.99536121 -2.5100601 -1.2385437
-1.0320276 -2.4969175 -1.2394763
-0.99487448 -2.4606309 -1.2379208
-1.0316153 -2.4483216 -1.2389672
-0.96004403 -2.4293842 -1.2380829
-0.99019569 -2.4022386 -1.2319322
-0.99632758 -2.3715301 -1.2397807
-0.95762867 -2.3770111 -1.2348776
-1.0297869 -2.352581 -1.2367094
-0.9896518 -2.3111653 -1.231236
-0.92393452 -2.3039744 -1.235281
-0.95444095 -2.2804716 -1.2306473
-0.99441099 -2.2790275 -1.2373276
-0.95858407 -2.2477036 -1.2361454
-0.99246562 -2.23228 -1.2348377
-1.0324055 -2.2296469 -1.239943
-0.96105832 -2.211736 -1.2394289
-0.92158735 -2.1716616 -1.2320504
-0.95509261 -2.1572642 -1.2315121
-0.95829451 -2.1248431 -1.2357612
-0.92038935 -2.1287711 -1.2304015
-0.99594247 -2.1190274 -1.2392877
-0.88971186 -2.1091847 -1.2337784
-0.95978051 -2.0893025 -1.2377332
-0.92078 -2.0523977 -1.2309391
-0.99194527 -2.0345194 -1.2341715
-0.9596321 -2.0138662 -1.2375362
-0.96019888 -1.978743 -1.2382884
-0.92427582 -1.9504179 -1.2357508
-0.92328352 -1.913306 -1.234385
-0.92497265 -1.8825488 -1.23671
-0.88941365 -1.8890767 -1.2333525
-0.89057314 -1.8577247 -1.2350085
-0.96148509 -1.8435171 -1.2399952
-0.9211278 -1.841166 -1.2314179
-0.88743162 -1.8180581 -1.2305219
-0.95824313 -1.8045985 -1.235693
-0.85619146 -1.7995541 -1.2320493
-0.88768673 -1.7862364 -1.2308862
-0.92163622 -1.7773056 -1.2321177
-0.96122789 -1.7468051 -1.2396538
-0.9272331 -1.6950923 -1.2398211
-0.89117789 -1.6997714 -1.2358721
-0.85535967 -1.6736654 -1.2308162
-0.89125603 -1.6699269 -1.2359836
-0.92411703 -1.6303047 -1.2355322
-0.8879745 -1.634362 -1.2312971
-0.85922354 -1.6225762 -1.2365446
-0.82531816 -1.6292043 -1.2331383
-0.85606873 -1.588069 -1.2318674
-0.85924703 -1.5660158 -1.2365794
-0.88887733 -1.5511857 -1.2325866
-0.85953212 -1.5389946 -1.237002
-0.85843313 -1.5099652 -1.2353728
-0.82530773 -1.490821 -1.2331222
-1.0590757 -3.00563 -1.2276852
-0.91383421 -2.9601152 -1.2213792
-0.94847018 -2.9369736 -1.2227238
-0.98324233 -2.9136961 -1.2230324
-1.0609877 -2.8885069 -1.2299639
-0.95165253 -2.885318 -1.2269469
-0.98796415 -2.8672864 -1.229076
-0.91460246 -2.8393722 -1.2224365
-0.94940561 -2.8189309 -1.2239652
-0.98559332 -2.8018215 -1.2260414
-0.91558915 -2.7837029 -1.2237946
-0.9483133 -2.7580566 -1.2225156
-0.98567396 -2.7453084 -1.2261447
-0.91549653 -2.7264848 -1.2236671
-0.94936317 -2.7052286 -1.2239089
-0.94993144 -2.652585 -1.224663
-0.98836678 -2.6440859 -1.2295913
-0.9161517 -2.6196129 -1.2245688
-0.88265175 -2.5866487 -1.2236955
-0.92000192 -2.5784812 -1.2298682
-0.84888124 -2.5519691 -1.2212114
-0.98690891 -2.5376408 -1.2277254
-0.91705126 -2.5195332 -1.225807
-0.88139671 -2.4818037 -1.2219031
-0.9182393 -2.4735954 -1.2274421
-0.94937027 -2.4491158 -1.2239183
-0.88084477 -2.4318326 -1.2211149
-0.91713196 -2.4227583 -1.2259181
-0.81700945 -2.4234211 -1.2203441
-0.84838444 -2.4027979 -1.220475
-0.91461372 -2.3696315 -1.222452
-0.84998471 -2.3607907 -1.2228475
-0.84819484 -2.310534 -1.2201939
-0.88261962 -2.2990627 -1.2236496
-0.88331759 -2.2573586 -1.2246464
-0.91587728 -2.2407207 -1.2241912
-0.88561547 -2.220757 -1.2279282
-0.85022235 -2.2289896 -1.2231998
-0.91870582 -2.205739 -1.2280843
-0.88564086 -2.1793463 -1.2279644
-0.84867769 -2.1423125 -1.2209097
-0.88398778 -2.1348517 -1.2256036
-0.82065409 -2.1274037 -1.2259563
-0.91672474 -2.0812624 -1.2253577
-0.84833688 -2.0629094 -1.2204045
-0.88501143 -2.0593939 -1.2270654
-0.81889462 -2.0449567 -1.2232469
-0.88609481 -2.0242863 -1.2286127
-0.84984589 -2.0286906 -1.2226416
-0.82319176 -2.0180914 -1.229864
-0.85041302 -1.9929882 -1.2234825
-0.82303536 -1.980865 -1.2296231
-0.75761932 -1.9647614 -1.2223178
-0.88670665 -1.952884 -1.2294866
-0.7899484 -1.9543738 -1.2260196
-0.85345411 -1.928315 -1.2279911
-0.88657933 -1.9174051 -1.2293047
-0.78777552 -1.9135224 -1.2225422
-0.85181481 -1.8898785 -1.2255607
-0.78659087 -1.8760476 -1.2206464
-0.85373735 -1.8601925 -1.228411
-0.81777841 -1.863142 -1.2215281
-0.81952113 -1.8336473 -1.2242117
-0.727404 -1.8395693 -1.2209295
-0.85365707 -1.8267354 -1.228292
-0.72803086 -1.8080205 -1.2220153
-0.78874403 -1.7817551 -1.2240921
-0.8206045 -1.7710994 -1.2258799
-0.85344177 -1.7617903 -1.2279729
-0.75643879 -1.7585045 -1.220353
-0.81955707 -1.7373518 -1.224267
-0.85149032 -1.7265173 -1.2250797
-0.81896681 -1.7052857 -1.2233582
-0.85222459 -1.6974344 -1.2261682
-0.81741303 -1.6718761 -1.2209655
-0.79216087 -1.6657978 -1.2295603
-0.72822553 -1.6529553 -1.2223525
-0.81779134 -1.6431082 -1.2215481
-0.85303903 -1.6396085 -1.2273757
-0.78717917 -1.6259352 -1.2215878
-0.78654414 -1.5959519 -1.2205716
-0.8191669 -1.5604342 -1.2236662
-0.75660354 -1.5521592 -1.2206272
-0.78827304 -1.5436877 -1.2233384
-0.8209936 -1.5364586 -1.2264792
-0.79113597 -1.4953772 -1.2279201
-0.75741076 -1.4996657 -1.2219707
-0.79213595 -1.4709774 -1.2295203
-0.75736743 -1.4732227 -1.2218986
-0.9075532 -3.0038629 -1.212734
-0.87823635 -2.9155169 -1.2173897
-0.90842235 -2.8802133 -1.2139304
-0.84459358 -2.8762486 -1.2148548
-0.87730712 -2.8508322 -1.2160625
-0.84244329 -2.8082151 -1.2116668
-0.87826169 -2.7943132 -1.2174258
-0.84449732 -2.7562923 -1.214712
-0.87816203 -2.736238 -1.2172835
-0.81186289 -2.720916 -1.212419
-0.87783146 -2.6792545 -1.2168114
-0.81062198 -2.6605737 -1.2105081
-0.91077322 -2.6573625 -1.2171661
-0.84728193 -2.6529207 -1.2188405
-0.87957942 -2.6302888 -1.2193078
-0.78074938 -2.6341228 -1.211298
-0.84745681 -2.5997593 -1.2190998
-0.81069523 -2.5536489 -1.210621
-0.87531084 -2.5139759 -1.2132115
-0.81324291 -2.5104041 -1.2145441
-0.8452965 -2.4906223 -1.215897
-0.81319803 -2.4604192 -1.2144749
-0.84322423 -2.4355557 -1.2128246
-0.87986076 -2.3820717 -1.2197095
-0.78246868 -2.3857148 -1.2140495
-0.81158459 -2.3602026 -1.2119905
-0.75376779 -2.3650684 -1.2159077
-0.81306744 -2.2742872 -1.2142738
-0.8453629 -2.2588496 -1.2159954
-0.78301173 -2.251467 -1.2149186
-0.81314033 -2.2311523 -1.2143862
-0.78297442 -2.2084661 -1.2148589
-0.81499803 -2.193996 -1.2172467
-0.84693694 -2.1785498 -1.218329
-0.78230357 -2.1648128 -1.2137852
-0.8156395 -2.1544809 -1.2182345
-0.72220957 -2.1597793 -1.2119325
-0.75169468 -2.1406112 -1.2124575
-0.78008872 -2.1180575 -1.2102408
-0.84460968 -2.0923507 -1.2148787
-0.78358108 -2.0879276 -1.2158297
-0.81440425 -2.0718389 -1.2163324
-0.78346962 -2.0488918 -1.2156513
-0.72500062 -2.0483165 -1.2167668
-0.75249571 -2.0251379 -1.2137907
-0.78087717 -2.0043592 -1.2115026
-0.78392243 -1.9753456 -1.2163759
-0.84627187 -1.9471128 -1.217343
-0.81595743 -1.9279338 -1.2187241
-0.66475981 -1.9277956 -1.2104987
-0.75319713 -1.9175076 -1.214958
-0.81615251 -1.8935094 -1.2190244
-0.75436592 -1.8856313 -1.2169032
-0.75594044 -1.855441 -1.2195237
-0.72138226 -1.8577473 -1.2104995
-0.78512037 -1.8387611 -1.2182931
-0.75153035 -1.8112569 -1.2121841
-0.69426125 -1.8110965 -1.2131225
-0.81584978 -1.7926672 -1.2185583
-0.78069776 -1.7954524 -1.2112155
-0.75456059 -1.7860191 -1.2172272
-0.7265504 -1.77193 -1.2194511
-0.78582311 -1.7434181 -1.2194177
-0.69379872 -1.7454134 -1.2122881
-0.63701582 -1.7435691 -1.2101187
-0.72417504 -1.7344891 -1.2153368
-0.75514805 -1.7241706 -1.2182049
-0.66505349 -1.7282293 -1.2110511
-0.78570592 -1.7121605 -1.2192302
-0.72410023 -1.7033981 -1.2152072
-0.69586897 -1.6887609 -1.216023
-0.75519615 -1.6635991 -1.218285
-0.75489926 -1.6335132 -1.2177908
-0.75232238 -1.5991085 -1.2135022
-0.72366476 -1.5849223 -1.214453
-0.75471365 -1.5759778 -1.217482
-0.78569245 -1.5661166 -1.2192086
-0.72457051 -1.5589598 -1.2160218
-0.72598726 -1.534552 -1.2184756
-0.75585544 -1.5233214 -1.2193822
-0.69368142 -1.5125637 -1.2120765
-0.72139555 -1.4978846 -1.2105227
-0.72279209 -1.4744462 -1.2129414
-0.80754465 -2.949358 -1.2057695
-0.84030396 -2.924068 -1.2084951
-0.7753157 -2.9106433 -1.2026023
-0.74504036 -2.8782005 -1.2013829
-0.7746622 -2.8451946 -1.2015564
-0.80752254 -2.823683 -1.2057356
-0.74612725 -2.8200252 -1.2031918
-0.77688909 -2.792413 -1.2051203
-0.80901122 -2.7691374 -1.2080278
-0.77943408 -2.7424283 -1.2091931
-0.71594125 -2.7281206 -1.2010754
-0.83960319 -2.6835334 -1.2074562
-0.77854246 -2.6820316 -1.2077662
-0.80833399 -2.5987432 -1.206985
-0.74534076 -2.587563 -1.2018828
-0.77448392 -2.5593693 -1.2012712
-0.74969155 -2.5495949 -1.2091237
-0.77818644 -2.5196702 -1.2071965
-0.74603266 -2.4856989 -1.2030343
-0.77727813 -2.4662621 -1.2057428
-0.71649998 -2.4595287 -1.2020432
-0.74682432 -2.4384978 -1.2043519
-0.77811944 -2.4199376 -1.2070893
-0.66031176 -2.4150033 -1.2021332
-0.74804509 -2.3940351 -1.2063836
-0.71925068 -2.3715682 -1.2068076
-0.74782437 -2.3004751 -1.2060162
-0.69179595 -2.3067439 -1.208675
-0.77843928 -2.2819858 -1.2076011
-0.71804059 -2.2757103 -1.2047117
-0.74855399 -2.2581971 -1.2072304
-0.72078747 -2.2403193 -1.2094693
-0.74896127 -2.2160738 -1.2079084
-0.63296157 -2.2107849 -1.2021617
-0.68768841 -2.2047372 -1.2012649
-0.71647269 -2.1840422 -1.201996
-0.65962559 -2.1843424 -1.2008427
-0.74961621 -2.1757803 -1.2089983
-0.68889666 -2.166275 -1.2034446
-0.65968674 -2.1426437 -1.2009577
-0.68769181 -2.1212702 -1.2012709
-0.6628257 -2.1119537 -1.2068613
-0.71772408 -2.1056395 -1.2041634
-0.74943066 -2.0940034 -1.2086896
-0.7196191 -2.0716045 -1.2074457
-0.65946323 -2.0614161 -1.2005373
-0.74857831 -2.0525546 -1.207271
-0.69089156 -2.0516851 -1.2070435
-0.63187814 -2.043045 -1.2000353
-0.65972674 -2.0235307 -1.2010329
-0.63308614 -2.008569 -1.2024063
-0.7206524 -1.9981349 -1.2092354
-0.6621542 -1.9931687 -1.2055982
-0.7498666 -1.9807584 -1.2094151
-0.69031245 -1.9743948 -1.2059988
-0.63380933 -1.9733865 -1.2038256
-0.66411096 -1.9620593 -1.2092783
-0.60823178 -1.961802 -1.2066143
-0.71944916 -1.9579736 -1.2071513
-0.68961275 -1.9360048 -1.2047365
-0.7170589 -1.9155989 -1.2030113
-0.63616782 -1.908267 -1.2084544
-0.6889298 -1.8985976 -1.2035043
-0.71977073 -1.8878361 -1.2077084
-0.552692 -1.8867271 -1.2002571
-0.65931487 -1.8767799 -1.2002584
-0.69031763 -1.8677552 -1.2060081
-0.66423988 -1.8564659 -1.2095209
-0.5799405 -1.8354799 -1.2029026
-0.68736571 -1.8259035 -1.2006826
-0.63277358 -1.8292103 -1.2017928
-0.60862887 -1.8227254 -1.2074285
-0.66218972 -1.8170733 -1.2056651
-0.66131335 -1.7818425 -1.2040169
-0.69021904 -1.7680084 -1.2058302
-0.66049159 -1.7475682 -1.2024714
-0.63683754 -1.7118288 -1.2097688
-0.66174334 -1.6887939 -1.2048256
-0.71958846 -1.6625596 -1.2073927
-0.65997213 -1.654213 -1.2014943
-0.68891072 -1.6419518 -1.20347
-0.63266462 -1.6403548 -1.2015789
-0.65979797 -1.6243923 -1.2011669
-0.60526246 -1.6257367 -1.2005262
-0.69178861 -1.6196768 -1.2086618
-0.63391298 -1.6144433 -1.2040291
-0.72059929 -1.6064787 -1.2091434
-0.66374224 -1.6052729 -1.208585
-0.60840237 -1.605261 -1.206964
-0.69003332 -1.5869404 -1.2054952
-0.63291973 -1.5833282 -1.2020795
-0.57885426 -1.5846783 -1.2005732
-0.66446954 -1.5786431 -1.2099528
-0.60826838 -1.5764841 -1.2066892
-0.69097406 -1.5610821 -1.2071923
-0.66377312 -1.5491388 -1.2086431
-0.69142139 -1.5345761 -1.2079993
-0.63672066 -1.537202 -1.2095393
-0.66225177 -1.5183089 -1.2057818
-0.63213253 -1.4990991 -1.2005346
-0.63255525 -1.473726 -1.2013643
-0.66280717 -1.4666167 -1.2068263
-0.60630798 -1.4634587 -1.2026699
-0.68904585 -1.4499528 -1.2037138
-0.80364609 -3.0008318 -1.1997663
-0.6845355 -3.0061579 -1.1955768
-0.74371213 -2.9374509 -1.1991724
-0.71344906 -2.9030747 -1.1967589
-0.68221021 -2.8633125 -1.1913819
-0.71280098 -2.8368151 -1.1956364
-0.68206012 -2.7999117 -1.1911111
-0.65671098 -2.784493 -1.195361
-0.71072215 -2.7672415 -1.1920357
-0.74270594 -2.746958 -1.1974977
-0.68406761 -2.747432 -1.1947327
-0.7430383 -2.6901212 -1.1980509
-0.6273908 -2.6917942 -1.1912285
-0.71430099 -2.6643095 -1.1982344
-0.74365443 -2.6361239 -1.1990763
-0.68531662 -2.6367388 -1.1969861
-0.71239805 -2.6016479 -1.1949384
-0.65393734 -2.5985794 -1.1901447
-0.62875015 -2.5842659 -1.1938963
-0.68450892 -2.5786035 -1.1955289
-0.71363974 -2.5523803 -1.1970892
-0.65725261 -2.5573232 -1.1963797
-0.62994707 -2.5351706 -1.1962454
-0.71376795 -2.5006611 -1.1973112
-0.68587607 -2.4787154 -1.1979953
-0.6551609 -2.445462 -1.1924459
-0.68430877 -2.4229732 -1.1951678
-0.62684995 -2.4200478 -1.190167
-0.71359897 -2.4004011 -1.1970185
-0.60075027 -2.4024732 -1.1912749
-0.68429136 -2.3743742 -1.1951364
-0.65668541 -2.3535237 -1.1953131
-0.65647537 -2.306083 -1.194918
-0.63015133 -2.2896361 -1.1966463
-0.5482899 -2.2701838 -1.1903697
-0.65666336 -2.2613916 -1.1952715
-0.60282683 -2.2689102 -1.1955324
-0.68646342 -2.244168 -1.1990548
-0.65628701 -2.2160246 -1.1945636
-0.60125178 -2.2184536 -1.1923031
-0.54851234 -2.1823611 -1.1908695
-0.60212499 -2.1784139 -1.1940935
-0.63031232 -2.1588941 -1.1969624
-0.54897422 -2.1416752 -1.1919067
-0.60085404 -2.1317649 -1.1914876
-0.6305154 -2.1181803 -1.1973609
-0.57494789 -2.1164494 -1.1921959
-0.60476398 -2.1046259 -1.1995041
-0.5231697 -2.0841486 -1.1910878
-0.68561721 -2.0748196 -1.1975284
-0.62969285 -2.0751255 -1.1957465
-0.60270554 -2.0574827 -1.1952838
-0.57591563 -2.0398464 -1.1942712
-0.54910988 -2.0213816 -1.1922115
-0.52318865 -2.0054243 -1.1911325
-0.57497907 -1.9980307 -1.1922628
-0.548823 -1.9821646 -1.1915671
-0.60211813 -1.9787793 -1.1940794
-0.57401794 -1.9572368 -1.1902016
-0.55106455 -1.9530066 -1.1966017
-0.62850261 -1.9204218 -1.1934105
-0.57498199 -1.9240108 -1.192269
-0.52274024 -1.9290031 -1.1900761
-0.60458815 -1.9137976 -1.1991436
-0.57697225 -1.8949678 -1.1965371
-0.52285832 -1.8934988 -1.1903543
-0.60268569 -1.8725641 -1.195243
-0.63109255 -1.8581839 -1.1984936
-0.57605994 -1.8570926 -1.1945807
-0.60442579 -1.8436135 -1.1988108
-0.55185652 -1.8152943 -1.1983805
-0.63150984 -1.7923828 -1.1993126
-0.57607561 -1.7898917 -1.1946143
-0.60444576 -1.7772187 -1.1988517
-0.63084155 -1.7581106 -1.198001
-0.57500666 -1.7541268 -1.192322
-0.52320397 -1.7593811 -1.1911685
-0.60347009 -1.7422653 -1.1968514
-0.49964887 -1.7213799 -1.1949511
-0.57397866 -1.719334 -1.1901174
-0.55190825 -1.7184726 -1.1984966
-0.60145497 -1.7051417 -1.1927197
-0.57800007 -1.7003723 -1.1987413
-0.54969615 -1.6807392 -1.1935282
-0.60168535 -1.6752286 -1.193192
-0.63183635 -1.6678849 -1.1999533
-0.57793605 -1.6697204 -1.1986041
-0.52295709 -1.6650248 -1.190587
-0.50137591 -1.6657503 -1.1992257
-0.55135435 -1.6556693 -1.1972526
-0.60312736 -1.6492974 -1.1961486
-0.47294927 -1.6430026 -1.1900638
-0.52277291 -1.6346294 -1.190153
-0.57392699 -1.6284007 -1.1900066
-0.55080706 -1.6244855 -1.1960233
-0.57400441 -1.5996341 -1.1901726
-0.5500809 -1.5934545 -1.1943923
-0.55049765 -1.566383 -1.1953284
-0.63172871 -1.5523773 -1.1997421
-0.57698333 -1.5515329 -1.196561
-0.52375972 -1.5518949 -1.1924778
-0.60418487 -1.5381012 -1.1983168
-0.5496971 -1.5363985 -1.1935303
-0.57631272 -1.5223331 -1.1951228
-0.47293046 -1.5290184 -1.1900148
-0.60366815 -1.5096654 -1.1972574
-0.54899561 -1.5073196 -1.1919549
-0.57490557 -1.4917957 -1.1921052
-0.52324957 -1.4960566 -1.191276
-0.60238791 -1.4798954 -1.1946325
-0.54867446 -1.4798769 -1.1912334
-0.57503074 -1.4658587 -1.1923735
-0.651371 -2.9542823 -1.1853181
-0.62567067 -2.93504 -1.1878526
-0.62523794 -2.8669407 -1.1870033
-0.59693289 -2.8351507 -1.1834481
-0.57111543 -2.8141973 -1.1839772
-0.62411523 -2.7981884 -1.1847998
-0.59918374 -2.7827132 -1.188063
-0.65262133 -2.7071357 -1.1876695
-0.57137114 -2.6926332 -1.1845256
-0.59884018 -2.6613121 -1.1873586
-0.65315163 -2.6514375 -1.1886669
-0.57194859 -2.6370726 -1.1857638
-0.62469584 -2.6228628 -1.1859394
-0.59794062 -2.6005032 -1.1855142
-0.54417706 -2.6074932 -1.1811321
-0.57098961 -2.576376 -1.1837074
-0.5968281 -2.5408213 -1.1832333
-0.5187062 -2.5325732 -1.1805726
-0.65367961 -2.4907815 -1.18966
-0.59948874 -2.4989631 -1.1886884
-0.57209808 -2.4741862 -1.1860844
-0.62486094 -2.4626157 -1.1862633
-0.59911233 -2.4458263 -1.1879166
-0.57389522 -2.4307921 -1.1899384
-0.51979691 -2.4325593 -1.1831421
-0.54404676 -2.3947728 -1.1808395
-0.62673384 -2.3706665 -1.1899391
-0.57062995 -2.3674977 -1.182936
-0.57095724 -2.3209827 -1.183638
-0.6258142 -2.3197553 -1.1881342
-0.59938854 -2.3015022 -1.1884829
-0.54421365 -2.299181 -1.1812143
-0.57162911 -2.2772238 -1.1850787
-0.6267072 -2.2322457 -1.1898868
-0.51878166 -2.236439 -1.1807503
-0.54487014 -2.211189 -1.1826888
-0.52181894 -2.2050519 -1.1879057
-0.57302123 -2.1935835 -1.1880642
-0.49372491 -2.1766338 -1.1802888
-0.57287323 -2.1502893 -1.1877468
-0.51896572 -2.1498284 -1.1811839
-0.49461326 -2.1377645 -1.1824875
-0.47017655 -2.1248529 -1.1828407
-0.51950341 -2.1101699 -1.1824505
-0.54700422 -2.0927057 -1.187482
-0.494293 -2.0947824 -1.1816949
-0.42101949 -2.0956337 -1.180181
-0.57267392 -2.0675945 -1.1873193
-0.54805201 -2.0565679 -1.1898353
-0.49473634 -2.0561988 -1.1827922
-0.49476153 -2.0169189 -1.1828544
-0.52023441 -1.9563556 -1.1841727
-0.46932933 -1.9254794 -1.1806337
-0.49671224 -1.9124222 -1.1876827
-0.54800892 -1.905885 -1.1897386
-0.49719879 -1.8786604 -1.1888869
-0.51959807 -1.8467416 -1.1826736
-0.54628366 -1.8303008 -1.1858636
-0.49511003 -1.8360696 -1.183717
-0.47031805 -1.8237745 -1.1832093
-0.52019352 -1.8148407 -1.1840764
-0.44548696 -1.8106703 -1.1816792
-0.49432257 -1.7993858 -1.1817679
-0.47120929 -1.7936444 -1.185531
-0.54806292 -1.7698418 -1.18986
-0.54745591 -1.7358011 -1.1884966
-0.49372211 -1.7321545 -1.1802818
-0.52067995 -1.7190675 -1.1852224
-0.44562814 -1.713655 -1.182067
-0.47013605 -1.6935499 -1.1827352
-0.39872199 -1.6983688 -1.1843425
-0.52032721 -1.6868844 -1.1843914
-0.49585634 -1.6773659 -1.1855643
-0.47193471 -1.6694283 -1.1874208
-0.4458389 -1.6233907 -1.1826462
-0.49483413 -1.614372 -1.1830342
-0.52242178 -1.604372 -1.1893258
-0.46977535 -1.6026684 -1.1817955
-0.49562049 -1.5881218 -1.1849805
-0.52165335 -1.5734913 -1.1875155
-0.46912122 -1.5718769 -1.1800914
-0.44793868 -1.5733842 -1.1884152
-0.49506932 -1.55813 -1.1836163
-0.42183581 -1.5571487 -1.1825519
-0.44694754 -1.5419774 -1.1856921
-0.49387366 -1.5267668 -1.1806569
-0.42147213 -1.5281628 -1.1814957
-0.52165741 -1.5182512 -1.187525
-0.49693489 -1.5091655 -1.1882337
-0.47186682 -1.4985756 -1.1872439
-0.44630256 -1.4857265 -1.18392
-0.52159309 -1.464991 -1.1873735
-0.56923449 -2.9365363 -1.1799436
-0.51443917 -2.9395638 -1.1705199
-0.49016216 -2.9220185 -1.1714706
-0.54092771 -2.8999426 -1.173834
-0.51494265 -2.874274 -1.1717061
-0.5676105 -2.8612282 -1.1764607
-0.54301417 -2.844723 -1.1785203
-0.54257178 -2.716727 -1.1775266
-0.51573986 -2.6886859 -1.1735843
-0.48985848 -2.6642454 -1.170719
-0.54300314 -2.6593406 -1.1784955
-0.51640505 -2.6332126 -1.1751513
-0.49007982 -2.6070902 -1.1712668
-0.51708668 -2.5797012 -1.1767571
-0.49030554 -2.5519145 -1.1718255
-0.46693647 -2.5410621 -1.1744
-0.4931491 -2.5120106 -1.1788635
-0.54249263 -2.4901509 -1.1773489
-0.54303014 -2.4406273 -1.1785561
-0.49066931 -2.4465663 -1.1727259
-0.49083877 -2.3963745 -1.1731453
-0.46682566 -2.3830442 -1.1741112
-0.41819599 -2.351125 -1.171981
-0.49159953 -2.3026407 -1.1750282
-0.46728945 -2.2885754 -1.1753194
-0.51810944 -2.2791164 -1.1791667
-0.49185845 -2.2573254 -1.1756691
-0.39517832 -2.246408 -1.1734363
-0.46677426 -2.2398696 -1.1739774
-0.49166897 -2.2113156 -1.1752001
-0.41949454 -2.2170968 -1.1757523
-0.46726382 -2.1973987 -1.1752527
-0.44126159 -2.1748705 -1.1700701
-0.46863121 -2.1602213 -1.1788149
-0.44249734 -2.1378133 -1.1734653
-0.41819391 -2.1231246 -1.1719749
-0.46868819 -2.0768561 -1.1789634
-0.44241431 -2.0546944 -1.1732372
-0.46751371 -2.0316279 -1.1759038
-0.39481103 -2.0307381 -1.1723059
-0.37215 -2.0238547 -1.1742141
-0.44269538 -2.0163391 -1.1740094
-0.34851238 -2.011039 -1.1721504
-0.41877678 -2.0044286 -1.1736678
-0.44296795 -1.9789677 -1.1747583
-0.41935501 -1.9688053 -1.175347
-0.46818441 -1.9576813 -1.1776509
-0.3951748 -1.9552928 -1.1734254
-0.49290019 -1.9338681 -1.1782475
-0.44191894 -1.9367359 -1.1718761
-0.41832557 -1.9266357 -1.1723573
-0.44199088 -1.900515 -1.1720737
-0.46746719 -1.8818361 -1.1757826
-0.44381785 -1.8726821 -1.1770934
-0.41859668 -1.8561158 -1.1731447
-0.46721837 -1.845806 -1.1751343
-0.41848034 -1.8210691 -1.1728069
-0.39454708 -1.8095268 -1.1714935
-0.41914245 -1.7902435 -1.1747297
-0.37094688 -1.7988075 -1.1702789
-0.444085 -1.7717277 -1.1778274
-0.39496303 -1.7779624 -1.1727736
-0.41889614 -1.7562876 -1.1740143
-0.46768492 -1.7475353 -1.1763498
-0.42042577 -1.7305226 -1.1784568
-0.46779084 -1.7161138 -1.1766257
-0.42086151 -1.7008185 -1.1797223
-0.34807727 -1.6941843 -1.1706328
-0.44473371 -1.6792117 -1.1796097
-0.39561135 -1.6545162 -1.174769
-0.41992134 -1.636232 -1.1769917
-0.42013684 -1.6076961 -1.1776177
-0.44404063 -1.5878612 -1.1777054
-0.3725656 -1.5888422 -1.1755733
-0.41837862 -1.5722815 -1.1725113
-0.39555338 -1.5668091 -1.1745906
-0.37130284 -1.5551237 -1.1714432
-0.46900171 -1.5435399 -1.1797801
-0.3483161 -1.5481054 -1.1714659
-0.39567322 -1.5393746 -1.1749594
-0.34868291 -1.4951718 -1.1727451
-0.39536026 -1.484094 -1.1739962
-0.37216526 -1.477239 -1.1742641
-0.41464508 -2.9144392 -1.1616684
-0.48919514 -2.7836337 -1.1690772
-0.44099417 -2.6878519 -1.1693354
-0.46469638 -2.6425061 -1.1685643
-0.41645604 -2.6080306 -1.1669278
-0.39230412 -2.5890017 -1.1645904
-0.36866757 -2.5159278 -1.1628236
-0.44093311 -2.4611435 -1.1691676
-0.39167902 -2.420939 -1.1626664
-0.44076115 -2.4083002 -1.1686951
-0.41680828 -2.3931475 -1.1679509
-0.36997446 -2.3174663 -1.1670983
-0.41622034 -2.2917216 -1.1662433
-0.34577337 -2.2980065 -1.1625983
-0.44108877 -2.2640705 -1.1695952
-0.36839426 -2.25998 -1.1619296
-0.34578708 -2.160454 -1.1626461
-0.36949074 -2.1322999 -1.165516
-0.34568432 -2.1166821 -1.1622877
-0.39295498 -2.1024404 -1.1665936
-0.36922842 -2.0886173 -1.1646581
-0.34539777 -2.0730844 -1.1612884
-0.39299592 -2.0614204 -1.1667196
-0.36916432 -1.9688131 -1.1644484
-0.36974841 -1.9342364 -1.1663588
-0.34693396 -1.9257641 -1.1666456
-0.39398876 -1.9123704 -1.1697751
-0.36953902 -1.8964418 -1.165674
-0.34625801 -1.8855205 -1.1642884
-0.36932886 -1.8596392 -1.1649865
-0.39346552 -1.8387299 -1.1681648
-0.36945617 -1.8254688 -1.165403
-0.34659243 -1.8171564 -1.1654547
-0.3459208 -1.7799009 -1.1631124
-0.34717757 -1.7534128 -1.1674953
-0.39396766 -1.740852 -1.1697103
-0.34687534 -1.7197018 -1.1664413
-0.39390555 -1.7087594 -1.1695191
-0.36973128 -1.6958429 -1.1663028
-0.34669566 -1.5975022 -1.1658148
-0.34784859 -1.5184995 -1.1698354
-0.36631411 -3.0116248 -1.1551259
-0.39011526 -2.8895063 -1.1578537
-0.39059287 -2.7596562 -1.1593237
-0.36759582 -2.6831088 -1.159318
-0.34476963 -2.2441151 -1.1590978
0.30936411 -0.9461816 -1.1221377
0.28946966 -0.92682308 -1.1237822
0.28944072 -0.89394522 -1.1236742
0.28944951 -0.87792659 -1.1237069
0.30912107 -0.87965977 -1.1212901
0.28900027 -0.86074549 -1.1220304
0.36935237 -1.061936 -1.1152254
0.36858726 -1.0410829 -1.1130035
0.38946441 -1.0464805 -1.1123308
0.34871912 -1.0384177 -1.1160446
0.32846019 -0.98077333 -1.1173786
0.34785441 -0.98201215 -1.1133833
0.36794871 -0.98524302 -1.111149
0.32877705 -0.9643712 -1.118415
0.34866104 -0.96690249 -1.1158658
0.32792374 -0.94477916 -1.115624
0.36811391 -0.93410391 -1.1116288
0.36853445 -0.91847616 -1.1128501
0.30674937 -0.88878316 -1.113019
0.32697305 -0.87641668 -1.1125144
0.28381059 -2.5102684 -1.1026622
0.43067005 -1.17365 -1.1076691
0.4089947 -1.1251438 -1.1074787
0.42803568 -1.1059994 -1.1011487
0.38714233 -1.0969521 -1.105951
0.45139593 -1.0980384 -1.1048448
0.40936789 -1.086991 -1.1084509
0.42872587 -1.0883441 -1.102857
0.47294325 -1.0851293 -1.1033576
0.4726772 -1.0653923 -1.10276
0.42876294 -1.0504702 -1.1029488
0.40703154 -1.0430169 -1.1023645
0.473207 -1.0477781 -1.1039499
0.45084083 -1.0397158 -1.1035372
0.38656694 -1.0202888 -1.1043701
0.40742198 -1.0256336 -1.1033816
0.38583082 -1.0003494 -1.1023476
0.38577387 -0.98251492 -1.1021912
0.43114674 -0.98363268 -1.1088489
0.36635274 -0.96353346 -1.106514
0.49435765 -0.96251881 -1.1009372
0.47328752 -0.95809126 -1.1041307
0.36466172 -0.94198644 -1.1016029
0.38542989 -0.9470911 -1.1012461
0.3882879 -0.93722034 -1.1090984
0.45073912 -0.93335402 -1.1032976
0.34537557 -0.92392135 -1.1057543
0.38700417 -0.90089959 -1.1055714
0.34581789 -0.89231563 -1.1071156
0.32605422 -0.88991797 -1.109509
0.34437907 -0.87255508 -1.1026872
0.32577437 -0.85738862 -1.1085936
0.32543156 -0.84093553 -1.1074724
0.34420419 -0.84079528 -1.1021491
0.3026925 -2.5131798 -1.098871
0.32036993 -2.5069244 -1.0909165
0.51455885 -1.1540705 -1.0954477
0.56107795 -1.0740055 -1.0949668
0.49298808 -1.0687696 -1.0980002
0.40604335 -1.0590833 -1.0997902
0.44893312 -1.0538365 -1.0990429
0.493242 -1.0504414 -1.0985447
0.51647538 -1.0598664 -1.0993772
0.53879696 -1.048172 -1.0975438
0.51439595 -1.0368305 -1.0951138
0.42726433 -1.0282807 -1.0992396
0.47062543 -1.0235332 -1.0981516
0.49151421 -1.0281717 -1.0948395
0.49219227 -1.0113564 -1.0962936
0.40453902 -1.0002829 -1.0958713
0.42509687 -1.0049051 -1.0938749
0.46973598 -1.003457 -1.0961539
0.44773966 -0.99622577 -1.0962313
0.40582341 -0.98575491 -1.0992172
0.4242124 -0.98502421 -1.0916858
0.46935415 -0.98481113 -1.0952963
0.51467705 -0.98302108 -1.09569
0.44764078 -0.9783147 -1.0959983
0.49104029 -0.97333878 -1.0938232
0.55851483 -0.9771229 -1.0901463
0.38460755 -0.96213704 -1.0989867
0.40461373 -0.96533781 -1.096066
0.47011316 -0.96885788 -1.097001
0.53522867 -0.96882057 -1.0905406
0.44537428 -0.95593971 -1.0906588
0.55859846 -0.95970643 -1.0903035
0.51516688 -0.94902045 -1.0966944
0.4275133 -0.92390239 -1.0998559
0.60795027 -0.92746562 -1.0919719
0.38399073 -0.9101029 -1.0972921
0.4042803 -0.91381979 -1.0951973
0.55943018 -0.89323342 -1.0918677
0.44522387 -0.87266356 -1.0903044
0.53023183 -2.6656394 -1.0807339
0.398545 -2.541554 -1.0802563
0.33996466 -2.516263 -1.0891012
0.60665411 -1.0509444 -1.0897269
0.5820508 -1.0403636 -1.0894054
0.60640913 -1.0317868 -1.0893025
0.65399396 -1.0302079 -1.0847713
0.67837244 -1.0392872 -1.0823421
0.51152343 -1.0126354 -1.0892242
0.53246939 -1.0172334 -1.0851253
0.62818736 -1.0185379 -1.0840518
0.53347647 -1.0010544 -1.0871018
0.55662835 -1.0095425 -1.0865984
0.58025843 -1.0004148 -1.0861719
0.62890005 -1.0014267 -1.085238
0.51015979 -0.99191636 -1.0864283
0.55833077 -0.99461055 -1.0898001
0.65423799 -0.99387878 -1.0851618
0.70401073 -0.99433535 -1.0810455
0.48831865 -0.98540854 -1.0879866
0.57899034 -0.98028946 -1.0838841
0.6017279 -0.98731935 -1.0811944
0.62990445 -0.98500729 -1.0869095
0.67933875 -0.98555046 -1.0838301
0.65438932 -0.97614372 -1.0854039
0.5783447 -0.96156049 -1.0827193
0.67942488 -0.96777958 -1.0839628
0.50841904 -0.95345378 -1.0828593
0.60423094 -0.95609319 -1.0855299
0.53352249 -0.94831759 -1.0871922
0.57796186 -0.94356108 -1.0820287
0.62677848 -0.94483352 -1.0817071
0.67896503 -0.94946772 -1.0832546
0.48882785 -0.93446338 -1.0890785
0.53381193 -0.93173218 -1.0877602
0.55456883 -0.93544078 -1.0827249
0.60495609 -0.93990761 -1.0867859
0.65500379 -0.92460394 -1.0863873
0.48838443 -0.9167816 -1.0881276
0.50863284 -0.91984868 -1.0832975
0.53330034 -0.91396493 -1.0867561
0.55442512 -0.91824836 -1.0824546
0.50912005 -0.90408498 -1.0842966
0.55825245 -0.90790689 -1.0896529
0.5776372 -0.9090637 -1.081443
0.48751739 -0.89856875 -1.0862683
0.53233111 -0.89567471 -1.0848539
0.58232278 -0.8998484 -1.089896
0.50848943 -0.886527 -1.0830035
0.5098502 -0.8727175 -1.0857935
0.57806897 -0.87669343 -1.082222
0.51096213 -0.84276634 -1.0880734
0.55452329 -0.83704025 -1.0826393
0.6040737 -0.83926314 -1.0852575
0.50892234 -0.82374513 -1.0838912
0.50502872 -2.4508684 -1.0759081
0.62186283 -2.3985157 -1.073526
0.52739328 -2.3613749 -1.0751629
0.50694251 -2.3512919 -1.079832
0.7546252 -1.0131869 -1.0750582
0.72584802 -0.9807952 -1.0734802
0.80885184 -0.9804042 -1.0707436
0.75452197 -0.97646219 -1.0749162
0.72724289 -0.96478838 -1.0754724
0.62520576 -0.95982176 -1.0790896
0.64986491 -0.95163411 -1.0781634
0.75497431 -0.9591344 -1.0755388
0.72489274 -0.94394606 -1.0721159
0.80867261 -0.94423562 -1.0705142
0.64850497 -0.93227589 -1.075987
0.69961643 -0.93485308 -1.0745307
0.67449433 -0.92576784 -1.0763704
0.72651249 -0.92866766 -1.0744293
0.75315738 -0.9216972 -1.073038
0.62476039 -0.90761954 -1.0783484
0.67115575 -0.90409184 -1.0712293
0.69988871 -0.90097541 -1.0749344
0.59858507 -0.89612097 -1.0757509
0.64878452 -0.89873606 -1.0764344
0.72342759 -0.89054626 -1.0700235
0.62192744 -0.88676757 -1.0736337
0.67072767 -0.8867597 -1.0705702
0.69850028 -0.88237679 -1.072876
0.75128442 -0.88525331 -1.0704601
0.59777868 -0.87841707 -1.0743542
0.6728301 -0.87303931 -1.0738077
0.62102532 -0.86905748 -1.0721322
0.64735764 -0.86370933 -1.074151
0.75208038 -0.86947608 -1.0715556
0.78165108 -0.86557454 -1.0732247
0.65100598 -0.85243434 -1.0799894
0.75180316 -0.8526122 -1.071174
0.80950469 -0.85917515 -1.0715792
0.57656229 -0.84222788 -1.0795038
0.59826803 -0.84683436 -1.0752019
0.64721996 -0.83135611 -1.0739306
0.67597008 -0.82849908 -1.0786428
0.67593473 -0.812603 -1.0785884
0.54508537 -2.7819242 -1.0648891
0.5466122 -2.3660707 -1.0677606
0.86445451 -0.96621305 -1.0646888
0.77862197 -0.94785869 -1.0692048
0.74920416 -0.93404639 -1.0675968
0.69623584 -0.91306597 -1.0695188
0.86457998 -0.91288704 -1.0648383
0.80796593 -0.90838838 -1.0696098
0.74895704 -0.89931148 -1.0672567
0.86400288 -0.89488316 -1.0641506
0.77362621 -0.88984829 -1.0625753
0.80136502 -0.88370818 -1.0611609
0.77841228 -0.87859553 -1.0689266
0.69607365 -0.86273116 -1.0692782
0.83268148 -0.86415243 -1.0632476
0.66997606 -0.85293341 -1.0694128
0.69350892 -0.84323108 -1.0654759
0.77433515 -0.84078574 -1.063516
0.80807805 -0.84104407 -1.0697532
0.72039384 -0.83739221 -1.0656909
0.74653751 -0.83023316 -1.0639266
0.69311166 -0.8267113 -1.0648869
0.77384502 -0.82400519 -1.0628656
0.69306993 -0.8108297 -1.0648252
0.71850532 -0.81912959 -1.0629938
0.74404132 -0.81138998 -1.0604907
0.8034206 -0.81975359 -1.063792
0.85654634 -0.8530699 -1.0552642
0.82810497 -0.84263712 -1.057596
0.8275786 -0.82567459 -1.056946
0.8592627 -0.82269448 -1.0585015
0.82586789 -0.80771875 -1.0548335
0.85310471 -0.80039823 -1.0511626
0.79703891 -0.79705012 -1.0556238
0.82509089 -0.79093575 -1.0538739
0.79252911 -2.5541809 -1.0498515
0.99661887 -2.9907167 -1.0284387
1.1964021 -2.9864316 -0.99714673
1.2393169 -2.9856982 -0.99596524
1.5412018 -0.1849806 -0.98689622
1.9244398 0.47606465 -0.95833868
1.9165541 0.49369323 -0.95449263
2.1669714 -0.18525249 -0.93740773
2.2123411 -2.7031555 -0.9107011
2.2117341 -2.6545172 -0.91045588
2.212992 -2.6090744 -0.91096413
2.2080472 -2.5571795 -0.90896624
2.1999035 -2.5026562 -0.90567601
2.1993449 -2.457917 -0.90545034
2.2040281 -2.4198575 -0.90734243
2.2827678 -2.4031641 -0.89239901
2.3915405 -2.4154153 -0.88584048
2.6305211 -2.4042583 -0.8686139
2.7375121 -2.5344574 -0.85009819
3.0962865 -0.012485755 -0.84129435
3.0937426 0.015515569 -0.84061271
3.0969236 0.35218582 -0.841465
3.0736279 -0.15115608 -0.83522296
3.0741868 -0.12332803 -0.83537275
3.0543275 -0.066955343 -0.83005148
3.0686603 -0.039723679 -0.83389193
3.0784056 0.043466661 -0.83650315
3.089879 0.07138285 -0.83957744
3.0895259 0.099296905 -0.83948284
3.0889378 0.12720671 -0.83932525
3.0871489 0.15507525 -0.83884591
3.0725806 0.1823508 -0.83494234
3.0886557 0.21104638 -0.83924967
3.0562737 0.23699054 -0.83057296
3.0612712 0.26508299 -0.83191198
3.0532806 -0.094545081 -0.82977092
3.5541778 -2.9512758 -0.76481986
4.1072102 0.15352657 -0.7320261
4.1352077 0.22764863 -0.7369628
4.1354413 0.26438904 -0.73700404
4.1231699 0.33708426 -0.73484027
4.1303144 0.37439376 -0.73610002
5.3929362 -2.961066 -0.5715242
5.4305911 -2.5015216 -0.57548195
5.880456 -2.9628582 -0.51839525
6.5469236 -2.8771057 -0.46094453
6.5501552 -2.810153 -0.46117052
6.543539 -2.7394595 -0.46070784
6.5472527 -2.6736927 -0.46096754
6.5530958 -2.6091974 -0.46137613
6.5518188 -2.5422418 -0.46128684
6.5498772 -2.4755113 -0.46115106
6.5426021 -2.4072616 -0.46064234
6.5513854 -2.2807419 -0.46125653
6.5421414 -2.2132504 -0.46061015
6.5454683 -2.1505406 -0.46084276
6.5491505 -2.088254 -0.46110028
6.51229 -2.0134408 -0.45852271
