# .PCD v0.7 - Point Cloud Data file format
VERSION 0.7
FIELDS x y z
SIZE 4 4 4
TYPE F F F
COUNT 1 1 1
WIDTH 1425
HEIGHT 1
VIEWPOINT 0 0 0 1 0 0 0
POINTS 1425
DATA ascii
1.8431034 -2.9702067 -1.0434654
1.4488925 -2.9659157 -1.0403364
2.2067149 -2.9659939 -1.048026
-2.5914016 -3.008393 -1.0301369
-2.483696 -3.0083251 -1.0366834
-2.3755746 -3.003556 -1.0393708
-1.98262 -2.994827 -1.0330516
-1.7543181 -2.9957051 -1.030924
-1.5688224 -2.9910731 -1.0330204
-1.5219885 -2.9951265 -1.0398968
-1.0676842 -2.9966381 -1.0358644
-0.96646863 -2.9980628 -1.0399307
1.0749863 -2.9807456 -1.033131
1.1608337 -2.9847682 -1.03862
1.4987205 -2.9713504 -1.0360634
1.5486135 -2.9754901 -1.0301901
1.6253246 -2.9702151 -1.0394619
1.7603406 -2.9745805 -1.0388331
1.9001784 -2.9773796 -1.031469
1.9901162 -2.9783874 -1.0344445
1.1114883 -2.9663785 -1.0308994
1.1980495 -2.9698339 -1.0342084
1.2412126 -2.968816 -1.0334336
1.2851893 -2.9683363 -1.0318047
2.07425 -2.9671566 -1.031406
2.1698742 -2.9691272 -1.0308467
-2.8691511 -3.0110009 -1.0288948
-2.7003496 -3.0060122 -1.0204406
-1.8095363 -3.0012302 -1.0222362
-1.4478009 -3.0016987 -1.0254385
-1.6720059 -2.9978251 -1.0209389
-1.3972129 -2.9942844 -1.0257937
-1.2606951 -2.9965682 -1.0289233
-1.1728734 -2.9983616 -1.025949
-1.0237901 -2.9904859 -1.0277954
-0.88657749 -2.9976058 -1.0221099
0.47933185 -2.9844706 -1.0232216
0.54415739 -2.9802179 -1.0210439
1.3295974 -2.9675055 -1.0290052
1.6745793 -2.9697387 -1.0293654
-2.4403822 -3.0083587 -1.0182979
-1.8636715 -3.0037918 -1.0112336
-1.7249311 -3.001775 -1.0132664
-2.3288975 -2.9970229 -1.0185888
-2.2278183 -2.9947481 -1.0198308
-2.1304085 -2.9933956 -1.0193429
-2.0403214 -2.9987128 -1.0191661
-1.9472264 -2.9956992 -1.0142324
-1.5403559 -2.9946818 -1.0138195
-1.4918189 -2.9940817 -1.0187719
-1.0864762 -2.9969826 -1.0179383
-0.84648502 -2.9927754 -1.0103503
1.2215121 -2.9844134 -1.0174804
1.3078525 -2.9801617 -1.0126193
1.354333 -2.9836562 -1.0104308
1.6487892 -2.9807687 -1.0138692
0.56120729 -2.9795344 -1.0110108
0.95322406 -2.9798021 -1.0194627
1.0919919 -2.9793162 -1.0133449
1.1321527 -2.9748075 -1.013688
1.2593052 -2.9700933 -1.0115818
1.4710063 -2.9749489 -1.0173699
1.9503351 -2.9726839 -1.0141749
1.1723559 -2.969111 -1.0126489
1.7236371 -2.9680212 -1.0176424
2.0359769 -2.9656184 -1.0127389
-2.5368447 -2.9969962 -1.0080945
-1.7714789 -2.9936483 -1.0002638
-1.6412725 -2.9997339 -1.0017346
-1.4165888 -2.9964154 -1.0027617
-1.3717151 -2.999862 -1.0065798
-1.2771109 -2.9916747 -1.0058646
-1.2335517 -2.9940383 -1.0061474
1.0114284 -2.9829156 -1.0079846
1.5685878 -2.9801841 -1.0040089
0.51189309 -2.9746139 -1.0024636
0.96883982 -2.9746921 -1.0006596
1.0494146 -2.9754057 -1.009285
1.3960627 -2.9754393 -1.0033447
1.5131114 -2.9649169 -1.0071347
1.7719409 -2.9642451 -1.0040193
1.8591336 -2.9673746 -1.0096451
2.1247833 -2.9599612 -1.0098206
-1.9165857 -3.0034311 -0.99794048
-2.6467633 -2.9982262 -0.99987066
-2.4925017 -2.9967902 -0.99017876
-1.6881179 -2.9940603 -0.99114686
-1.5102491 -2.994494 -0.99351221
-1.0636344 -2.9992619 -0.99588019
0.53044105 -2.9842601 -0.99629891
1.0679333 -2.9793882 -0.99168241
1.1060078 -2.9707065 -0.9909606
1.1484727 -2.9725075 -0.99260843
1.4868217 -2.9719305 -0.990062
1.6125146 -2.9719982 -0.99207324
2.1883399 -2.9703667 -0.99261487
1.4367222 -2.9643373 -0.99424499
1.8253907 -2.968328 -0.99170369
1.9097607 -2.9648051 -0.99350131
1.9989561 -2.9651752 -0.99468273
-2.2513585 -3.0021939 -0.98406619
-1.3899444 -3.0002654 -0.98340344
-2.0549085 -2.9935706 -0.98251921
-1.9660467 -2.9969544 -0.98132128
-1.7418009 -2.9997089 -0.9831292
-1.6070437 -2.9944577 -0.98034602
-1.5569394 -2.9916904 -0.98657954
-1.3427616 -2.9972425 -0.98476177
-1.2983495 -2.999095 -0.98667705
-1.2532526 -2.9979534 -0.98654455
-1.1234256 -2.9985962 -0.98142606
-0.98083514 -2.9967148 -0.98331422
-0.82735217 -2.9952276 -0.9867233
-1.2047701 -2.9866867 -0.98199672
0.50054079 -2.9896708 -0.9811129
0.54671919 -2.9816973 -0.98591655
0.98560089 -2.9741416 -0.98304331
1.0246116 -2.9714994 -0.98615569
1.3244674 -2.9788158 -0.98873222
1.743156 -2.9718039 -0.98806357
1.2751596 -2.9669662 -0.98798335
1.3641511 -2.9674568 -0.98099983
1.5322139 -2.9687808 -0.98127985
-1.7934605 -3.0007229 -0.97231495
-1.8783784 -2.9985025 -0.97762525
-1.4827877 -2.9990745 -0.97498924
-1.0797955 -2.9942274 -0.97623569
-0.84582615 -2.9973729 -0.97354436
0.5167321 -2.9880378 -0.97156721
0.56210548 -2.9753823 -0.97407317
0.9465121 -2.9746583 -0.97833192
1.2088352 -2.9752505 -0.97215033
1.2538141 -2.9798982 -0.97189838
1.4112775 -2.971513 -0.97708237
1.4567708 -2.9708321 -0.97054678
1.5854552 -2.9797735 -0.97581428
1.8827463 -2.9776609 -0.97973675
1.1219472 -2.968399 -0.97035092
1.1640761 -2.9693232 -0.97096968
1.7917752 -2.9688447 -0.97383004
1.9642115 -2.9674795 -0.97773665
2.0535426 -2.966079 -0.97660047
2.1451261 -2.9643633 -0.97337478
-2.3133621 -3.007266 -0.9643811
-2.2139311 -3.005584 -0.96740252
-2.1169696 -3.0033128 -0.96814132
-1.3169985 -3.0012534 -0.96534783
-1.1845281 -3.0002961 -0.96501166
-1.9283875 -2.9941132 -0.96213293
-1.5774499 -2.9972367 -0.96185374
-1.5282295 -2.9949179 -0.96793509
-1.3590395 -2.9941514 -0.96094972
-1.1402347 -2.9962857 -0.96166825
-0.95840931 -2.9961815 -0.96009159
-0.90166587 -2.9964652 -0.96795988
-0.80702764 -2.9927776 -0.96162456
0.96610528 -2.9841568 -0.96421665
1.042387 -2.9745941 -0.96868032
1.3398871 -2.9757233 -0.96401006
1.000242 -2.9681416 -0.9634307
1.2921152 -2.967382 -0.96522701
1.5017247 -2.9680622 -0.96222812
1.7048639 -2.962244 -0.96683794
3.1276541 -2.9538844 -0.96937656
-2.5189762 -3.0077367 -0.95081782
-2.0797231 -3.0044134 -0.95077306
-1.5008683 -3.0003643 -0.95016652
-1.8428943 -2.9971724 -0.95875812
-1.7590863 -2.9993222 -0.95326102
-1.4528884 -2.9981124 -0.95482194
-1.4049369 -2.9945872 -0.95793647
-1.0978558 -2.9954944 -0.95840293
-0.91872799 -2.9949727 -0.95230424
-1.6215992 -2.9889591 -0.95117837
0.48558855 -2.9827864 -0.95299184
0.54929477 -2.9885628 -0.95275253
0.53142053 -2.9788706 -0.95941848
0.92482281 -2.9761372 -0.95664257
1.0605222 -2.9795115 -0.95142055
1.0998517 -2.9756501 -0.95181066
1.1416132 -2.9768872 -0.95277959
1.1817567 -2.972414 -0.95099437
1.4280888 -2.9719498 -0.95192045
2.210741 -2.9778795 -0.9559868
1.3810157 -2.9678867 -0.95667052
1.5464827 -2.9640846 -0.95239729
1.6753105 -2.9673326 -0.95045626
1.9243647 -2.9611983 -0.95830202
3.0857399 -2.9659431 -0.95656204
-2.2708266 -3.0049896 -0.94632578
-1.5492482 -3.0022101 -0.94423133
-1.9853435 -2.99984 -0.94858998
-1.6718771 -2.9913342 -0.94275874
-1.3302579 -2.9919982 -0.94003856
-1.2436833 -2.9963424 -0.9439671
-1.1995775 -2.9944508 -0.94307923
-1.1563343 -2.9930909 -0.94135422
-1.1159331 -2.9976704 -0.94054317
-0.97499776 -2.9938014 -0.94317794
1.021299 -2.9821701 -0.94969261
1.4794199 -2.9834006 -0.94829053
0.9804557 -2.9781349 -0.94497967
1.2701124 -2.9794312 -0.94924104
1.5964096 -2.9691434 -0.94418752
1.8051399 -2.9635077 -0.94019425
1.894562 -2.969938 -0.94376636
-1.9499394 -3.0010898 -0.93132228
-1.8075749 -2.995374 -0.93997842
-1.7258234 -2.9991455 -0.9348231
-1.4239328 -2.9984939 -0.93529111
-1.3760651 -2.9936953 -0.93772018
-1.074332 -2.9974399 -0.937222
-1.0323386 -2.9941571 -0.93198144
-0.93634754 -2.9962299 -0.93724597
-0.8982383 -2.9983594 -0.93033177
-0.84234208 -2.9952562 -0.93504179
0.51716501 -2.9814126 -0.93472725
1.1184673 -2.9823711 -0.93403643
1.0359405 -2.9780099 -0.93005198
1.0748312 -2.9744699 -0.93081599
1.402348 -2.9788232 -0.93520421
0.93881446 -2.9691672 -0.93786222
1.6439558 -2.9686687 -0.93307602
1.7249442 -2.9685786 -0.9382953
2.1654348 -2.9695663 -0.93675542
3.0216656 -2.9554389 -0.93697256
-2.3271987 -3.0031073 -0.92339206
-1.306548 -3.0009341 -0.9228124
-2.2227745 -2.9943142 -0.92592895
-1.4668348 -2.9916165 -0.92806488
-1.2582393 -2.9905424 -0.92106962
-1.2174213 -2.9966347 -0.92344892
-0.99365515 -2.9987109 -0.92830199
-0.95226431 -2.9929292 -0.92044449
-0.80584413 -2.997704 -0.92589563
-0.64768255 -2.9921684 -0.92292213
-1.5116243 -2.9878795 -0.92072135
-1.1713581 -2.9881167 -0.92022765
0.47117794 -2.9784217 -0.92588943
0.53255171 -2.9797904 -0.92488736
1.8642603 -2.9775043 -0.92898721
0.95449388 -2.9686267 -0.92076987
1.1544644 -2.9683092 -0.92967123
1.196265 -2.9683561 -0.92853206
1.2384884 -2.9680681 -0.92626488
1.2811068 -2.9674439 -0.92285156
1.4432217 -2.9697871 -0.9256714
1.6907879 -2.9661143 -0.92013413
1.9425571 -2.9641166 -0.92484707
2.0350242 -2.9693344 -0.92435426
3.3919015 -2.9556844 -0.92050409
3.6578436 -2.9549897 -0.92288929
-2.18697 -2.9995108 -0.91073084
-2.0897343 -2.9945042 -0.91210651
-1.9120901 -2.9977894 -0.91286188
-1.6889386 -2.991791 -0.91437751
-1.5601684 -2.9906566 -0.914267
-1.3930734 -2.9941254 -0.91447622
-1.1303425 -2.9908688 -0.91954446
-1.0096439 -2.99635 -0.91081822
-0.91352749 -2.9932046 -0.91361511
-0.71683931 -2.9967754 -0.91533929
-1.3457502 -2.9889054 -0.91649348
0.48703319 -2.980576 -0.91798902
0.54828393 -2.9810116 -0.91559988
1.0913931 -2.9766891 -0.91211212
1.1742313 -2.9786167 -0.91192842
1.6177359 -2.9789882 -0.91854209
1.1293545 -2.9692459 -0.91005319
1.324091 -2.966481 -0.91827428
2.1254752 -2.9677665 -0.91979361
2.2192783 -2.9674051 -0.91350394
-2.2849691 -3.0015802 -0.90633017
-1.8240732 -2.9950113 -0.90898216
-1.6126994 -2.9998384 -0.9085924
-1.4380004 -2.9928384 -0.90933961
-1.276463 -2.9945104 -0.90095431
-1.2331105 -2.9943745 -0.90213376
-1.1894921 -2.9921024 -0.90162832
-1.1491081 -2.9966607 -0.90221
-0.96815336 -2.9905517 -0.9036752
-0.87697905 -2.9986916 -0.90753394
-0.78546506 -2.9955485 -0.90160882
-1.4823881 -2.9894626 -0.90245253
0.51772714 -2.9811127 -0.90021521
1.2595822 -2.9809773 -0.90777987
0.50213462 -2.9789443 -0.90869379
0.97225314 -2.9754324 -0.90553153
1.0099249 -2.9716027 -0.90743691
1.2984811 -2.9714341 -0.90100026
1.4600072 -2.971988 -0.90043753
2.0940204 -2.9774194 -0.90644181
1.0486401 -2.9693103 -0.90883899
1.4135058 -2.9687803 -0.90710276
1.5331193 -2.9663913 -0.90764689
1.6596091 -2.9682939 -0.90355605
1.7377768 -2.9631841 -0.90587103
1.8234301 -2.9673026 -0.909073
1.9975231 -2.9684336 -0.90765768
3.1003282 -2.9643559 -0.90140849
3.3358743 -2.9586596 -0.90549171
3.5923486 -2.9544189 -0.90655959
-1.6611046 -3.0000465 -0.89894891
-2.1473296 -2.9987073 -0.89390445
-1.8774965 -2.9989316 -0.89598948
-1.7890936 -2.9935813 -0.89115918
-1.5326645 -2.9969471 -0.89774108
-1.4108866 -2.9971902 -0.89173174
-1.3209931 -2.996063 -0.89915836
-1.0656255 -2.9940124 -0.89681149
-0.93018001 -2.9935615 -0.89836019
-0.83835745 -2.9946706 -0.89764875
-1.3619907 -2.9884608 -0.89351064
-1.1047986 -2.9891887 -0.89811063
1.1500827 -2.9832091 -0.89373118
0.47206521 -2.9749627 -0.89098608
1.066093 -2.9751804 -0.89162445
1.3438073 -2.97576 -0.89718741
1.7090927 -2.9708121 -0.8912558
1.7923286 -2.9723837 -0.89390379
1.1043199 -2.969856 -0.89049411
1.8711184 -2.963156 -0.89153469
1.9607227 -2.9678614 -0.89127314
3.5383751 -2.9624422 -0.89310247
-2.0206127 -3.0032215 -0.88133156
-1.2951018 -3.0002632 -0.88102907
-2.2412114 -2.9971442 -0.88865083
-1.5034714 -2.9994445 -0.88020003
-1.2495071 -2.9947984 -0.88136965
-1.2073119 -2.996099 -0.88269305
-1.1631005 -2.9907792 -0.88100892
-1.1244897 -2.9986176 -0.88227433
-1.0835724 -2.99894 -0.88029975
-0.94741952 -2.9966791 -0.88365281
-0.74890983 -2.9927464 -0.88985503
-0.64760715 -2.9940202 -0.888017
0.48747429 -2.9780834 -0.88330138
0.53150904 -2.9738047 -0.88875443
0.54713702 -2.9778838 -0.88025731
0.95009005 -2.9784505 -0.88557583
0.98708236 -2.973995 -0.88758028
1.2717717 -2.9734044 -0.88298452
2.0521696 -2.9714327 -0.88867724
1.1852393 -2.9673638 -0.88757712
1.4282899 -2.9674954 -0.88137984
2.1369462 -2.9619124 -0.88023961
3.0387225 -2.9565923 -0.88374335
3.8078954 -2.9549122 -0.88924474
4.1090374 -2.9524105 -0.88275892
-2.2045507 -3.0015743 -0.87383902
-2.1062078 -2.9949896 -0.87644929
-1.9254755 -2.9933553 -0.87884611
-1.8425288 -2.998806 -0.87893462
-1.7562172 -2.9950535 -0.87440777
-1.6250477 -2.9926305 -0.87896222
-1.5463055 -2.9922402 -0.87025994
-1.3361565 -2.9938524 -0.87608522
-1.0412611 -2.993479 -0.87563175
-1.0023081 -2.9958751 -0.87237149
-0.90760815 -2.9920387 -0.87578839
-0.81790596 -2.99529 -0.87493509
-0.71485204 -2.9970958 -0.87950838
0.50229478 -2.9783576 -0.87453145
1.3604255 -2.9788699 -0.87393457
1.8417144 -2.9719388 -0.87782335
1.0790366 -2.9692316 -0.87074053
1.312407 -2.9683394 -0.87679589
1.4725364 -2.9663672 -0.87266928
1.6723962 -2.963691 -0.87255794
1.7554127 -2.9670269 -0.87589866
1.9214646 -2.9627211 -0.87379432
2.011658 -2.9665024 -0.87148106
3.4689326 -2.9562263 -0.87578851
3.7377191 -2.9531934 -0.87304324
-1.2681355 -3.0014706 -0.86214715
-2.070786 -2.998764 -0.8614136
-1.9798206 -2.9971697 -0.86316979
-1.8921653 -2.9969454 -0.86331338
-1.8072109 -2.9974003 -0.86170894
-1.4726698 -2.9980986 -0.86169261
-1.2240887 -2.9983168 -0.86290216
-1.1787826 -2.9903011 -0.86119473
-1.1385142 -2.9936156 -0.86180001
-1.099604 -2.999347 -0.86212236
-0.92359096 -2.9924088 -0.86064178
-0.86980969 -2.9916742 -0.86834401
-0.83465672 -2.9984198 -0.86214882
-0.62991697 -2.9915421 -0.8627528
-1.4225509 -2.9880221 -0.86506212
-0.77976781 -2.9878216 -0.86305833
0.47466412 -2.9883845 -0.86111349
0.51729906 -2.980541 -0.86601371
0.92625564 -2.9756341 -0.86411524
0.96369565 -2.9742479 -0.8672505
1.1601566 -2.9701059 -0.86935347
1.8912354 -2.9710717 -0.86033535
2.1097722 -2.9779174 -0.86926055
2.201942 -2.9768581 -0.86137289
1.0393163 -2.968766 -0.86994112
1.2011648 -2.9696043 -0.86687559
1.5943593 -2.9654961 -0.86886203
1.8053112 -2.9687099 -0.86084831
3.4153626 -2.9626319 -0.86243206
4.0437374 -2.9595661 -0.86887896
-2.2601602 -3.0015519 -0.85146767
-2.1629102 -2.9984066 -0.85701513
-1.7234548 -2.9961138 -0.85771453
-1.5181426 -2.997314 -0.85400003
-1.3524693 -2.9951847 -0.85379511
-1.3072857 -2.9918354 -0.85661167
-1.0169851 -2.992614 -0.85452902
-0.9778834 -2.9928567 -0.85037929
-0.88512617 -2.99019 -0.85330641
-0.79726607 -2.9946766 -0.85201216
-0.69598645 -2.995873 -0.85536158
-0.64692867 -2.9974804 -0.85401517
-1.0556289 -2.9893293 -0.85685235
0.53082681 -2.9751236 -0.85514176
1.0170466 -2.9748197 -0.85190755
1.3309975 -2.9767876 -0.85554594
1.6438557 -2.970577 -0.85801589
1.0541668 -2.9691906 -0.85131013
1.2850261 -2.9694068 -0.85901445
1.4438897 -2.9688458 -0.85613012
1.5639729 -2.9673531 -0.85270536
1.7225816 -2.9679315 -0.85988587
2.0626478 -2.9647014 -0.8502211
3.6709156 -2.9529388 -0.85762042
3.9613323 -2.9527006 -0.85136324
4.3538609 -2.9475088 -0.85489124
-1.946092 -3.0012212 -0.84815282
-1.2830629 -3.0001345 -0.8402732
-2.122606 -2.9962862 -0.8407312
-1.8584388 -2.9992969 -0.84758645
-1.7710773 -2.9938643 -0.8440854
-1.6922269 -2.9993091 -0.84180313
-1.5625387 -2.9935768 -0.84431291
-1.4407568 -2.9937341 -0.84251732
-1.3944362 -2.9902418 -0.84749413
-1.2372305 -2.992491 -0.84050721
-1.1958789 -2.9943278 -0.84240645
-1.1531771 -2.9913325 -0.84189963
-1.1143107 -2.9970453 -0.84289026
-0.94044489 -2.9964705 -0.8462891
-0.84936982 -2.9950683 -0.84717792
-0.66216433 -2.9959095 -0.84278315
-0.59806639 -2.9950597 -0.84936321
0.5024299 -2.9832232 -0.8422181
0.48692679 -2.9753094 -0.8489548
0.54552996 -2.9773219 -0.84608811
0.94038117 -2.9741898 -0.84698355
1.1764538 -2.9741626 -0.84957284
1.2189313 -2.9772487 -0.84734327
2.162487 -2.9766984 -0.84622759
1.256233 -2.9665546 -0.840316
1.4867189 -2.9651098 -0.84591818
1.6903471 -2.9692769 -0.84416407
1.7705811 -2.9675274 -0.84465337
1.8538679 -2.9674678 -0.84369832
1.9392703 -2.9673228 -0.84075427
3.620306 -2.9649341 -0.8459363
3.3516982 -2.9591188 -0.84655869
4.2884278 -2.9583464 -0.84217232
-1.8243198 -3.0003979 -0.83167648
-2.2145867 -2.9941943 -0.83397371
-1.607547 -2.9903538 -0.83362168
-1.3675919 -2.9947627 -0.83071989
-1.3220885 -2.9905148 -0.83406556
-1.0347518 -2.9994125 -0.83933437
-0.99460584 -2.9969218 -0.83507502
-0.90181541 -2.9942591 -0.83961338
-0.86485565 -2.9954355 -0.83303583
-0.77765507 -2.9974904 -0.83023196
1.1128331 -2.9819357 -0.83497095
0.51573098 -2.9787459 -0.83189625
0.95567721 -2.9773753 -0.83083385
1.0328363 -2.9789159 -0.83464497
1.3437268 -2.9728293 -0.83056921
2.0300691 -2.9718649 -0.83705842
2.1209564 -2.9728379 -0.83028543
1.4140786 -2.9683409 -0.83891863
1.532797 -2.9671075 -0.83612883
3.0555689 -2.9584477 -0.83038408
-1.6601499 -3.0004196 -0.82545906
-2.0863626 -2.9992673 -0.82608795
-1.994903 -2.9968565 -0.82920313
-1.738518 -2.9957633 -0.82820523
-1.5327711 -2.9960613 -0.82781243
-1.4098399 -2.99071 -0.82394052
-1.1681674 -2.9908655 -0.8222729
-1.1273099 -2.9911294 -0.82240731
-1.0881865 -2.9947104 -0.82247967
-0.95502633 -2.9940989 -0.8297987
-0.82717317 -2.991667 -0.82419258
-0.628254 -2.9918876 -0.82831168
-0.58148497 -2.9948227 -0.82478023
0.53018498 -2.9819059 -0.82333827
0.47282925 -2.9796202 -0.82549256
1.191722 -2.9764256 -0.82899034
1.3860117 -2.9709971 -0.82271427
1.8227535 -2.9733877 -0.82984531
1.9092923 -2.9765275 -0.82802945
1.4573706 -2.9667101 -0.82965016
1.5773433 -2.9652672 -0.82412612
3.8296423 -2.9602211 -0.82337159
3.5449629 -2.9552622 -0.82854199
4.2054529 -2.9556315 -0.82604367
4.6263218 -2.9484425 -0.82355958
-2.1766953 -2.9965322 -0.81942844
-1.7883512 -2.9977195 -0.81490403
-1.5801055 -2.9983718 -0.81903082
-1.4569054 -2.9959593 -0.8186447
-1.3388292 -2.9945278 -0.81274694
-1.2514216 -2.9902561 -0.8189308
-0.97077304 -2.99634 -0.81435746
-0.88035661 -2.9967394 -0.81889087
-0.79187661 -2.9941106 -0.81627274
-0.74188447 -2.994992 -0.81947851
-0.64385235 -2.9940841 -0.81848234
-1.0058782 -2.9854069 -0.81510657
0.54227006 -2.9726753 -0.81130379
1.0080657 -2.9782724 -0.815292
1.0454884 -2.9747696 -0.81491363
1.1247362 -2.9760201 -0.81335968
1.3149236 -2.9721384 -0.81326258
1.7906915 -2.9772658 -0.81557035
3.0155575 -2.9713507 -0.81966305
1.4289464 -2.969712 -0.81389433
1.625751 -2.9699259 -0.81265849
1.7039979 -2.9680908 -0.81360507
1.986764 -2.962363 -0.81956202
2.0774331 -2.9652174 -0.81357837
3.4864848 -2.9586143 -0.81504124
-2.1366878 -2.9951997 -0.80407107
-1.5478071 -2.9965525 -0.80185741
-1.5000701 -2.9920909 -0.80968601
-1.4289548 -2.9999783 -0.80250746
-1.3818954 -2.9934695 -0.80714983
-1.1426477 -2.9924748 -0.8037318
-1.1018649 -2.9915025 -0.80323309
-1.0631411 -2.9947698 -0.80291212
-1.0229344 -2.9922438 -0.80003661
-0.93165904 -2.9931879 -0.80875874
-0.89368987 -2.9915628 -0.80268937
-0.84173703 -2.9901764 -0.80991727
-0.80682522 -2.9944744 -0.80312169
-0.75690037 -2.9953403 -0.80718148
-0.70746541 -2.9950054 -0.80865246
-1.6222196 -2.9899912 -0.80613261
-1.2236559 -2.9889328 -0.80020267
-1.1820964 -2.9886041 -0.80190182
0.45785239 -2.9779291 -0.80056691
0.49936736 -2.974463 -0.80669844
0.93062848 -2.9723852 -0.80981547
1.1632165 -2.9716351 -0.80976313
1.476384 -2.9768307 -0.80613351
1.2439083 -2.9692028 -0.80112654
1.865417 -2.9630096 -0.80940545
1.9522775 -2.9653838 -0.8056286
2.1674922 -2.9637296 -0.80429357
3.4222946 -2.9559538 -0.8002218
3.7529805 -2.953639 -0.80707663
4.1220565 -2.9510927 -0.80983305
4.5483923 -2.9550109 -0.80981851
5.0125141 -2.9449549 -0.80094379
-1.356788 -3.0021005 -0.79206377
-2.1002011 -2.9981756 -0.79006511
-2.0115311 -2.9998124 -0.79585403
-1.9197199 -2.9930098 -0.79728991
-1.8348548 -2.9934008 -0.79862684
-1.3105596 -2.9948242 -0.79508221
-0.98415565 -2.9921482 -0.79687923
-0.94557983 -2.9908197 -0.79245734
-0.6736992 -2.9947319 -0.79697764
-0.62678581 -2.997632 -0.7958343
-0.5802111 -2.9974449 -0.79176551
-1.4679712 -2.9885755 -0.7918933
-0.72095031 -2.9897099 -0.79539651
0.47138229 -2.979177 -0.79253149
0.51303846 -2.9757206 -0.79791749
0.94644409 -2.9793031 -0.79473472
1.0590787 -2.9743025 -0.79591602
1.8407037 -2.9797456 -0.79891527
0.98066878 -2.9689958 -0.7938872
1.2854688 -2.9693019 -0.79556429
1.3981239 -2.9670787 -0.7968092
1.74889 -2.9638941 -0.79695916
3.6935678 -2.9596164 -0.79444808
4.0565338 -2.9582338 -0.79709667
4.4666004 -2.957669 -0.79539639
-1.9735498 -2.9981499 -0.78050864
-1.8865213 -2.997 -0.78319788
-1.8026327 -2.9973938 -0.78428066
-1.7169651 -2.990988 -0.78161615
-1.6414901 -2.9990695 -0.78088146
-1.5139186 -2.9908459 -0.78383857
-1.3961761 -2.9930708 -0.78358269
-1.1165236 -2.9919455 -0.78475159
-0.90976852 -2.9965951 -0.78904837
-0.87167269 -2.9928071 -0.78215802
-0.78626317 -2.9960649 -0.78182906
-0.73714566 -2.996639 -0.78524166
-0.5341928 -2.9941447 -0.78484464
-0.47586691 -2.9960141 -0.78525454
-1.1970757 -2.9899645 -0.78227413
0.48385733 -2.9746795 -0.7828151
0.52589941 -2.9731607 -0.78792405
1.5603064 -2.9663944 -0.78073901
1.7973142 -2.9652114 -0.78049755
3.3701844 -2.962872 -0.7881912
3.6328211 -2.9635053 -0.78153598
3.9896278 -2.9632509 -0.78409147
4.3826642 -2.9574311 -0.78059608
4.9357605 -2.958226 -0.78878719
-2.0649266 -3.0023198 -0.77652454
-1.5597069 -2.9918597 -0.77428079
-1.4402143 -2.9934399 -0.77650738
-1.3230958 -2.9908497 -0.77181947
-1.283145 -2.9965603 -0.7779516
-0.96095401 -2.9940052 -0.77741069
-0.92420906 -2.9970021 -0.77388
-0.83523417 -2.9924302 -0.77531666
-0.70341837 -2.9982417 -0.77522832
-0.65502274 -2.9945035 -0.7739141
-0.60858542 -2.9952259 -0.77168155
-0.54898596 -2.9963429 -0.77659845
-1.2378742 -2.9884994 -0.77937609
0.49662817 -2.9730656 -0.77358824
0.5399583 -2.9782591 -0.7795946
0.91998458 -2.9702773 -0.77330828
1.301458 -2.9751678 -0.77389711
1.4881315 -2.9729695 -0.77867049
1.2565328 -2.9669948 -0.7781778
1.8815445 -2.9668541 -0.77705055
1.9662815 -2.9659152 -0.77091134
3.0658731 -2.9548092 -0.77529454
4.8406367 -2.9588759 -0.7737211
-2.0226979 -2.9954538 -0.7603144
-1.9352245 -2.9951818 -0.76502419
-1.7655789 -2.9925694 -0.76778316
-1.6843978 -2.9920571 -0.76642978
-1.6061832 -2.9933505 -0.76366121
-1.4849453 -2.9943233 -0.76843321
-1.4120846 -2.9970987 -0.76091486
-1.2113461 -2.9904335 -0.76214868
-1.1335683 -2.9996789 -0.7679221
-1.0924687 -2.9965651 -0.76727468
-0.88681555 -2.9959981 -0.76838142
-0.84865946 -2.9900224 -0.76069784
-0.79911494 -2.9908214 -0.76729518
-0.66966778 -2.9967341 -0.76360697
-0.62200159 -2.9917579 -0.76066524
-0.56328416 -2.9966466 -0.76759136
-1.3652109 -2.9892838 -0.76570487
-1.1702238 -2.9897614 -0.76416224
-1.0499467 -2.9876084 -0.76410991
-1.0111446 -2.9874773 -0.76228803
0.4694342 -2.9813566 -0.76060545
0.51054275 -2.9791303 -0.76599246
0.55214268 -2.9738026 -0.76865667
1.6878254 -2.9738262 -0.76977146
1.848942 -2.9711061 -0.76387841
1.5282542 -2.9648926 -0.76510608
1.604431 -2.9645786 -0.76717627
2.0546954 -2.967257 -0.76323885
3.0138445 -2.9558713 -0.76232231
3.9111879 -2.9582818 -0.76884431
4.2893367 -2.9491405 -0.76414001
-1.8163652 -2.9970806 -0.75341839
-1.7350336 -2.9982948 -0.75418359
-1.528614 -2.992224 -0.75843817
-1.4556128 -2.9965804 -0.75283682
-1.3395211 -2.9966881 -0.75087285
-1.2969428 -2.99615 -0.75610512
-0.815207 -2.9987009 -0.75597662
-0.73100257 -2.9961319 -0.75099331
-0.68328053 -2.9951911 -0.75206244
-0.63640022 -2.993988 -0.75091726
-1.2524588 -2.9898748 -0.75877678
0.48213258 -2.981663 -0.75209761
0.52285618 -2.976573 -0.75605553
1.0086683 -2.9735937 -0.75929075
1.5806007 -2.9799128 -0.75606406
2.1514921 -2.9770925 -0.75546873
1.2698977 -2.967495 -0.75567573
1.6524336 -2.9692621 -0.75401402
1.7321539 -2.9699962 -0.75283861
4.2271461 -2.9612241 -0.75317407
3.497004 -2.955873 -0.75266719
3.83392 -2.9527593 -0.75382495
4.7475581 -2.9591365 -0.75897884
5.3395557 -2.9442892 -0.75668842
-1.5746871 -2.9941072 -0.74829954
-1.4984989 -2.9939606 -0.74309373
-1.3832015 -2.9986541 -0.74490464
-1.2278115 -2.997232 -0.74337542
-1.1855935 -2.9938593 -0.74542463
-1.1438102 -2.9901345 -0.74634606
-1.0655305 -2.9926436 -0.7477029
-0.9885093 -2.9930167 -0.74460334
-0.94993764 -2.9904294 -0.74092489
-0.86447245 -2.9969606 -0.7482636
-0.82754135 -2.9934769 -0.74100488
-0.77874017 -2.9939904 -0.74692035
-0.48881486 -2.9932952 -0.74410516
-1.1031562 -2.9878874 -0.74662733
-1.0254021 -2.9888403 -0.74561423
-0.58897036 -2.9849143 -0.74565148
0.53653264 -2.9826534 -0.74794143
0.49405965 -2.9781318 -0.74245214
1.2433999 -2.9711509 -0.74037725
1.3124222 -2.9703064 -0.74930394
1.8123751 -2.9682653 -0.74910438
1.8919148 -2.9624212 -0.74236465
3.7709723 -2.9571764 -0.74158919
4.651516 -2.9558351 -0.74376732
5.2583632 -2.9597139 -0.74527752
-1.6255903 -3.0042136 -0.73900741
-1.5481706 -3.0040584 -0.73536652
-1.3126642 -3.001121 -0.735367
-1.9480468 -2.9940698 -0.73165858
-1.8648063 -2.9969568 -0.73657334
-1.7785344 -2.9914129 -0.73736018
-1.4251156 -2.9958413 -0.73662114
-1.2693086 -2.9975538 -0.73950082
-1.0805123 -2.996773 -0.7307719
-0.91470379 -2.9968283 -0.73860216
-0.87657291 -2.9917722 -0.73247057
-0.55994534 -2.994925 -0.73429292
-0.64920312 -2.9895887 -0.73921812
1.8678812 -2.9808249 -0.73313898
1.0982323 -2.9738851 -0.73770916
1.545493 -2.973258 -0.73969305
1.9769989 -2.9623635 -0.73495966
2.1034358 -2.9638762 -0.73892158
3.4325874 -2.953186 -0.73897499
4.1474385 -2.9596601 -0.73911947
5.1524444 -2.9594378 -0.73039162
-1.4714496 -3.0014906 -0.72931141
-2.0364864 -2.9959931 -0.72582948
-1.8265146 -2.9917483 -0.72110248
-1.6684309 -2.9984057 -0.72453016
-1.2391692 -2.9923089 -0.72139132
-1.1977749 -2.9907184 -0.72460645
-1.1577963 -2.9915209 -0.72737294
-1.0409441 -2.9948168 -0.7298398
-1.0012261 -2.9906907 -0.72739631
-0.96528447 -2.9964306 -0.72645807
-0.84010249 -2.9901361 -0.7263208
-0.70940804 -2.9902418 -0.72783607
-0.66406417 -2.9956298 -0.72995651
-1.3496376 -2.9891732 -0.72629994
-1.1168063 -2.9883559 -0.72813165
-0.92539626 -2.9879551 -0.72105169
0.46505043 -2.9736543 -0.72677231
1.66597 -2.9706631 -0.72474521
1.7457047 -2.9713917 -0.72216779
1.9464301 -2.9715433 -0.7238335
0.99514621 -2.9699955 -0.72261983
2.1948621 -2.9648049 -0.72705966
3.0865219 -2.9621978 -0.7227025
3.7044024 -2.9575925 -0.72864926
4.0609136 -2.9516251 -0.72386283
4.5633531 -2.9559703 -0.72980368
5.82266 -2.9444089 -0.72041684
-1.9164512 -3.0013859 -0.71953017
-1.9974805 -2.9934914 -0.71163255
-1.7141502 -2.9973867 -0.71003067
-1.5098529 -2.9901116 -0.71667778
-1.3927026 -2.9902964 -0.71938688
-1.1325119 -2.9952307 -0.71095306
-1.0915685 -2.9908257 -0.71110851
-1.0536646 -2.9934402 -0.71197289
-1.0160987 -2.9957669 -0.71178859
-0.89001262 -2.9921958 -0.71788383
-0.6779322 -2.9978867 -0.71947849
-0.54270792 -2.9935601 -0.71056759
-0.52925336 -2.9922867 -0.71899027
-1.3206176 -2.9891 -0.71021384
-0.80444288 -2.9891405 -0.7194652
-0.76958638 -2.9887955 -0.71192127
0.48945746 -2.976222 -0.71008617
0.53048003 -2.9771993 -0.71444392
1.1128793 -2.9798825 -0.7192505
1.9106069 -2.9720943 -0.71079493
1.5546862 -2.9668398 -0.71049404
2.1549358 -2.9640653 -0.71408689
3.6457441 -2.9633489 -0.71724725
4.0033464 -2.9637027 -0.7137121
4.4870777 -2.9625068 -0.71772289
5.0469375 -2.9575274 -0.7155636
-1.633472 -2.99441 -0.70896542
-1.5557575 -2.9932761 -0.70644385
-0.9771027 -2.992244 -0.70921803
-0.90402466 -2.9954305 -0.70374531
-0.82020819 -2.9989467 -0.70840788
-0.73782766 -2.9985671 -0.7060079
-0.59932399 -2.9921021 -0.70513195
-1.2102925 -2.9894018 -0.70404041
-1.1689837 -2.9865489 -0.70661569
-0.937756 -2.9856052 -0.70495051
0.54224908 -2.9765847 -0.70459342
1.0087084 -2.9741864 -0.70554608
1.3393971 -2.9749386 -0.70288646
1.995764 -2.9719312 -0.70184726
1.2954856 -2.9685309 -0.70994812
1.4798532 -2.9665282 -0.70908469
2.1180186 -2.9668424 -0.70209169
3.5781827 -2.9606602 -0.70411468
4.388114 -2.9522688 -0.70204854
-1.9608008 -2.9937947 -0.69828218
-1.6000749 -2.9925776 -0.69409609
-1.5255507 -2.9958956 -0.69235814
-1.4058256 -2.9908209 -0.69587439
-1.1441402 -2.9920681 -0.69109178
-1.1052551 -2.9931433 -0.69325233
-1.0660561 -2.9920747 -0.69390029
-0.95332682 -2.9944315 -0.69130158
-0.86759949 -2.9947259 -0.69907695
-0.56880629 -2.9942183 -0.69257843
-0.51363796 -2.9973478 -0.69668913
-0.45835367 -2.9925928 -0.69535708
-1.0263201 -2.9879196 -0.69282615
-0.98798573 -2.9862137 -0.69136328
-0.83039093 -2.9890292 -0.69232517
-0.78170705 -2.9854271 -0.6982637
-0.74801606 -2.9876161 -0.69109106
-0.70159161 -2.9872546 -0.69414908
0.51283497 -2.9759314 -0.6918593
1.1631106 -2.977556 -0.69402218
1.2665557 -2.9676816 -0.69456577
1.5240039 -2.9684567 -0.69683337
1.5998374 -2.9688816 -0.69667363
1.6747152 -2.9643624 -0.69348615
1.756264 -2.9685595 -0.69029313
1.8692187 -2.9630384 -0.69573087
3.5222278 -2.966644 -0.69323814
3.9191415 -2.9545279 -0.69886458
4.316535 -2.9592063 -0.69071156
4.9316754 -2.9478092 -0.6993646
-1.7294945 -3.002202 -0.68190384
-1.9258455 -2.9961364 -0.68555951
-1.6449813 -2.9923735 -0.68067026
-1.3773514 -2.9937818 -0.68136603
-1.2249957 -2.994441 -0.68475163
-1.1847531 -2.9943283 -0.68869478
-0.7960465 -2.9914951 -0.6866526
-0.76217562 -2.9936941 -0.68005031
-0.62518269 -2.9928062 -0.68522847
-1.333586 -2.9896202 -0.68795407
-0.91496885 -2.9893401 -0.68714726
-0.6689176 -2.9879634 -0.6844154
0.4732765 -2.978545 -0.68781495
0.52438074 -2.9762805 -0.68252784
1.6484466 -2.9765637 -0.68287295
1.0563581 -2.9690659 -0.68393213
1.5678896 -2.9691377 -0.68311256
3.8549368 -2.9593124 -0.68754351
4.8406143 -2.950922 -0.68656677
-1.8946326 -3.0038989 -0.67419893
-1.4932592 -2.9937718 -0.67730039
-1.265529 -2.9942312 -0.67967778
-1.1196425 -2.9982238 -0.67578387
-1.0421957 -2.9976377 -0.67780614
-0.96601564 -2.9948945 -0.67540109
-0.84391046 -2.9922779 -0.67919952
-0.80843455 -2.9909747 -0.67323875
-0.72857356 -2.9946787 -0.67231566
-0.6821934 -2.9911981 -0.67406166
-0.63723671 -2.9903107 -0.67428154
-1.0771325 -2.9879591 -0.67498922
-0.92616057 -2.9851277 -0.67083037
0.49588138 -2.9782565 -0.6701597
0.53594583 -2.9776015 -0.67318738
1.132672 -2.9689858 -0.67644846
1.799451 -2.9635608 -0.6703375
2.0401273 -2.9645452 -0.67678326
2.1697049 -2.9678221 -0.67650211
3.4522626 -2.9595239 -0.67963827
3.7808626 -2.9551866 -0.67448229
4.2289929 -2.9536381 -0.67684627
4.7490406 -2.9521315 -0.67369694
5.4874287 -2.9571412 -0.67925566
-1.6971593 -3.0046492 -0.66883957
-1.540391 -3.0008178 -0.66752309
-1.9750996 -2.996829 -0.66543078
-1.4649475 -2.9992049 -0.66409838
-0.8922019 -2.9928007 -0.66935974
-0.77567339 -2.9978912 -0.66830862
-0.65072161 -2.9954541 -0.66490257
-0.56373537 -2.9957981 -0.66118366
-0.85560888 -2.9898992 -0.66453898
-0.69288892 -2.9839804 -0.6610691
-0.60478669 -2.9857063 -0.66176558
0.50769728 -2.9824715 -0.66192549
1.0683732 -2.9705031 -0.66512012
1.3199179 -2.9705143 -0.66349369
1.8907229 -2.9786198 -0.66567868
2.1336882 -2.9722333 -0.66549069
1.4620641 -2.9688587 -0.66925609
3.3945444 -2.961889 -0.668419
4.6703467 -2.9600174 -0.66263723
3.0913925 -2.9551442 -0.66645181
3.71101 -2.9530916 -0.66216534
4.1579618 -2.958369 -0.66559601
5.3683329 -2.9533982 -0.66463256
-1.938843 -2.9975326 -0.65294659
-1.6592699 -2.9963813 -0.65353125
-1.5801281 -2.9926374 -0.65314168
-1.3190277 -2.9951322 -0.65164864
-1.2779592 -2.9947591 -0.65837675
-1.1708599 -2.997654 -0.65349627
-1.1313403 -2.9968963 -0.65660113
-1.0527006 -2.9925847 -0.65912306
-0.94167882 -2.9958634 -0.65771937
-0.90646893 -2.9998159 -0.65599167
-0.86784011 -2.9903498 -0.65032619
-0.78602433 -2.990752 -0.65375787
-0.70643198 -2.9900873 -0.6509338
-0.61879307 -2.9946811 -0.65379781
-0.57506889 -2.9913568 -0.65086842
-1.0898391 -2.9893782 -0.65716064
-0.97601593 -2.9879255 -0.65760279
-0.81904197 -2.9848087 -0.65833241
-0.73842108 -2.9846549 -0.65789884
-0.52037406 -2.9883964 -0.65462106
0.46756762 -2.9770803 -0.65642178
1.2516708 -2.9724717 -0.65818775
1.849759 -2.9699564 -0.65157366
1.9661978 -2.9652631 -0.65276217
2.0887704 -2.9632735 -0.65175796
3.3348458 -2.9614711 -0.65681475
3.0396407 -2.9569077 -0.6554516
4.0831795 -2.9591367 -0.65375167
5.2549105 -2.950748 -0.65070599
-1.8171225 -2.9930797 -0.64598757
-1.4299679 -2.9901323 -0.64778715
-1.3591243 -2.9924867 -0.64316255
-1.2485591 -2.9927731 -0.64274442
-1.0260842 -2.9904423 -0.64183813
-0.98870605 -2.990272 -0.64172697
-0.83272749 -2.9909077 -0.64600998
-0.79932594 -2.9959149 -0.64178866
-0.67382795 -2.990509 -0.64200819
-0.58843279 -2.99843 -0.6429525
-0.48023134 -2.9932432 -0.6489796
-0.44065019 -2.9949753 -0.64080161
0.5309664 -2.9909275 -0.64476889
-1.2070619 -2.9889932 -0.64726889
-1.0625242 -2.9866195 -0.64009243
-0.75056195 -2.9850729 -0.64569813
-0.53268611 -2.9896955 -0.64634663
1.1181771 -2.9725342 -0.64163208
1.7385886 -2.9769125 -0.64818543
1.4014096 -2.9696014 -0.64225096
1.9299895 -2.9657798 -0.64099735
4.0142622 -2.9629781 -0.64283621
2.9860029 -2.9558752 -0.64405054
4.5794249 -2.9585776 -0.64985895
-1.7074255 -3.00179 -0.63929266
-1.9011602 -2.9952977 -0.63997138
-1.7846931 -2.9971182 -0.63418424
-1.4727863 -2.9909325 -0.63742357
-1.3997703 -2.9904203 -0.63370579
-1.1807007 -2.9926994 -0.63265663
-0.91598558 -2.9918554 -0.63905215
-0.84673673 -2.9989026 -0.63383847
-0.68635052 -2.9937737 -0.63154137
-0.59901667 -2.9920888 -0.63183391
-0.5038743 -2.9919724 -0.63272524
-0.39021724 -2.9952164 -0.63690495
-1.1015583 -2.9889679 -0.63870627
-0.87844861 -2.9861128 -0.63487685
-0.76272106 -2.9864488 -0.63350064
-0.7168743 -2.9838402 -0.63780618
-0.64077562 -2.9858818 -0.6311723
0.48877978 -2.9748745 -0.63856435
1.3309523 -2.9701762 -0.63965106
1.6992449 -2.9672282 -0.63386548
1.8116235 -2.9649856 -0.63844252
3.5298679 -2.9632869 -0.63022512
3.9369159 -2.959213 -0.63058573
4.4822822 -2.9513519 -0.63620651
5.1599998 -2.9568353 -0.63905239
-1.6754555 -3.0047097 -0.62702054
-1.9517943 -2.9997704 -0.62027067
-1.7493904 -2.9956708 -0.62133515
-1.3289801 -2.9911866 -0.62846023
-1.2203859 -2.9931681 -0.62776446
-1.1159874 -2.9968541 -0.62181562
-0.96527952 -2.9958961 -0.6259256
-0.92746073 -2.9913993 -0.62360406
-0.81065679 -2.9944699 -0.62813747
-0.69847327 -2.9960942 -0.62064689
-0.65432578 -2.9948847 -0.62250602
-0.61072981 -2.9924688 -0.62201661
-0.51530284 -2.9903858 -0.62409711
-0.46421099 -2.9946392 -0.62610018
-0.41396528 -2.9967742 -0.62432081
-0.89042091 -2.987525 -0.62047833
-0.72980982 -2.9890161 -0.62701285
1.7812275 -2.9722626 -0.62797636
1.4417419 -2.9673181 -0.62956601
3.8732648 -2.9646616 -0.62050444
4.404501 -2.9555078 -0.62527502
5.0619688 -2.959455 -0.62701571
5.8572898 -2.9561238 -0.62032974
-1.8360088 -3.0054684 -0.61753792
-1.7190881 -3.002372 -0.61030596
-1.1561189 -3.0006964 -0.61903071
-1.6393672 -2.9994702 -0.61316758
-1.4848704 -2.9923854 -0.6127072
-1.3005081 -2.9931436 -0.61457348
-1.1923021 -2.9932382 -0.61283207
-0.74233317 -2.9932511 -0.61577773
-0.66543543 -2.9933779 -0.61134386
-0.58005559 -2.9930573 -0.61077547
-0.48753256 -2.9962664 -0.61103892
-0.47616696 -2.9968977 -0.61898184
-0.42532781 -2.9951437 -0.61720723
-0.82045072 -2.988308 -0.61330163
-0.62088311 -2.9861462 -0.61057299
-0.52623069 -2.9868803 -0.61486924
1.4137572 -2.9728522 -0.61768723
1.6369445 -2.9749463 -0.61118996
1.8585212 -2.9663525 -0.61777592
3.4679415 -2.9632776 -0.61930579
4.315568 -2.9505942 -0.61277628
4.9583349 -2.9569774 -0.61429107
-1.4557682 -2.9965894 -0.60035408
-1.341282 -2.9935448 -0.60643226
-1.2721069 -2.9947791 -0.60072124
-1.0870365 -2.9913538 -0.60510081
-1.0135536 -2.9959295 -0.60949218
-0.83229291 -2.9906664 -0.60009605
-0.78712177 -2.9920774 -0.60907918
-0.75300872 -2.9908388 -0.60292387
-0.67633522 -2.9918811 -0.60000288
-0.63321441 -2.991339 -0.60139459
-0.59102243 -2.9915168 -0.60088301
-0.5388661 -2.9939833 -0.60772359
-0.49859023 -2.9946771 -0.6027059
-0.44850048 -2.997714 -0.60366321
-0.43655345 -2.9935207 -0.60991037
-0.97349006 -2.9861269 -0.60768306
-0.93691128 -2.9853344 -0.60679096
-0.86633778 -2.9875882 -0.60298091
-0.70705265 -2.9841189 -0.60652214
0.48175263 -2.9770508 -0.6086024
1.3833294 -2.9727163 -0.60477138
1.9470569 -2.975492 -0.60843176
1.4530592 -2.9687915 -0.60393131
4.8686757 -2.9612696 -0.60328233
3.398854 -2.9558415 -0.60712385
3.7942564 -2.9569037 -0.60799074
4.2465281 -2.9581106 -0.60307336
-1.8761326 -2.9948673 -0.59568667
-1.6811785 -2.9949567 -0.59650803
-1.5267704 -2.9910746 -0.59999794
-1.3806157 -2.9900331 -0.59638655
-1.0231959 -2.9917974 -0.5916214
-0.98711026 -2.994107 -0.59296858
-0.71964431 -2.9902744 -0.59605461
-0.64457768 -2.9927061 -0.59120178
-0.5503425 -2.9953132 -0.59913468
-1.1629021 -2.9893167 -0.59719986
-0.79737586 -2.9887435 -0.59527355
-0.60103625 -2.9861407 -0.59002095
0.49169922 -2.9764535 -0.59959716
0.50149602 -2.9758654 -0.59040928
1.4240152 -2.9725518 -0.59219676
1.7886363 -2.9669251 -0.59506893
1.9033188 -2.9639585 -0.59505969
2.1874645 -2.9617987 -0.59777623
4.1736593 -2.9617372 -0.59283233
3.0001256 -2.9592228 -0.59175175
3.7265027 -2.9566972 -0.59725958
4.7683825 -2.9573281 -0.59096789
-1.9604259 -2.996218 -0.5862056
-1.8411412 -2.9959419 -0.58431727
-1.3511925 -2.9914217 -0.58328646
-0.61317122 -2.9923093 -0.58135146
-0.52055818 -2.9934564 -0.58590508
-0.42112976 -2.9953668 -0.58704388
-1.4216974 -2.9897814 -0.58589184
-1.058903 -2.9873569 -0.58885795
-0.84258515 -2.988308 -0.58572358
-0.80787349 -2.9873171 -0.58169466
-0.72953117 -2.9859498 -0.58322388
-0.68680477 -2.9894378 -0.58829093
-0.56023484 -2.9889433 -0.58876228
0.46517292 -2.9854212 -0.58884352
1.8750272 -2.9761803 -0.58641005
1.6428385 -2.9668899 -0.58032525
2.1476853 -2.9613502 -0.58711743
4.1002536 -2.9637229 -0.58251584
3.6575091 -2.9542656 -0.58633208
5.5027218 -2.9594381 -0.58306319
-1.9297098 -3.0056527 -0.57681477
-1.2169907 -3.0007472 -0.57383937
-0.96344429 -3.0004025 -0.57818043
-1.6153792 -2.9961255 -0.57255906
-1.5395308 -2.9951808 -0.57484394
-1.1745822 -2.9917054 -0.57804996
-1.0344046 -2.9932597 -0.57471377
-0.99711049 -2.9918296 -0.5759477
-0.74197304 -2.9930797 -0.57251853
-0.53181541 -2.9957571 -0.57782167
-0.48079172 -2.9919477 -0.57992488
-0.44237837 -2.9921398 -0.57247585
-0.431407 -2.9908385 -0.57925123
-0.39490756 -2.9956722 -0.57036418
-1.0694114 -2.9869702 -0.57096797
-0.92363197 -2.98807 -0.57530487
-0.88833034 -2.9885726 -0.57402271
-0.85260737 -2.985961 -0.57119113
-0.77362722 -2.9860461 -0.57671905
-0.69749278 -2.9889174 -0.57679856
-0.65471977 -2.9892888 -0.57984614
-0.62298608 -2.9879138 -0.570351
1.726162 -2.97786 -0.57476979
1.4635148 -2.9693906 -0.57791722
1.536607 -2.9694202 -0.57467014
3.5918932 -2.9533906 -0.57593954
4.0128064 -2.9539394 -0.57022589
4.6676974 -2.9513183 -0.57860529
-1.6944808 -2.9998641 -0.56880593
-1.364714 -2.9982986 -0.5617038
-1.321066 -2.9906745 -0.56987333
-1.2541771 -2.9957569 -0.56581455
-1.1471344 -2.9929683 -0.56406462
-1.0095873 -2.9979661 -0.56038547
-0.66611964 -2.9925935 -0.56966597
-0.5935424 -2.9949434 -0.56172264
-0.50261927 -2.9945996 -0.56452626
-0.29308704 -2.9960515 -0.56047177
-0.93453956 -2.9895275 -0.56011873
-0.81863177 -2.9877982 -0.56832045
-0.78455156 -2.9874699 -0.56412035
-0.70752031 -2.9864945 -0.56475461
-0.58086562 -2.9839401 -0.56913364
-0.54033327 -2.9835775 -0.56665939
-0.45264626 -2.9895678 -0.56474328
0.49323058 -2.9817121 -0.56183594
1.2261889 -2.9735904 -0.56423765
1.6875111 -2.9694581 -0.56221133
4.5924573 -2.960109 -0.56936693
3.5296004 -2.9541583 -0.56607336
3.9432442 -2.9560876 -0.5604496
-1.857981 -3.0066698 -0.55488503
-1.1880738 -2.9996085 -0.5597356
-0.86532581 -2.9940259 -0.55850595
-0.67648572 -2.9920731 -0.55853742
-0.60381079 -2.9943931 -0.55183363
-0.51348943 -2.9969068 -0.55674011
-0.47439972 -2.995122 -0.55086327
-0.46335855 -2.9908853 -0.55761141
-0.42605489 -2.9927583 -0.55000848
-0.41548786 -2.9914529 -0.55651629
-1.2223724 -2.9885328 -0.55098379
-1.0802556 -2.9884498 -0.55325586
-1.0430671 -2.9882209 -0.55636507
-0.97020221 -2.9887521 -0.55977958
-0.82914722 -2.9882908 -0.55476421
-0.79449999 -2.9860518 -0.55078769
-0.75045043 -2.984961 -0.55861139
-0.71845537 -2.9888639 -0.55347425
-0.6331892 -2.986412 -0.55976856
-0.55178326 -2.9887941 -0.55880421
0.45676371 -2.9861526 -0.55940849
0.50141346 -2.9753082 -0.55159914
1.4756999 -2.9744377 -0.55250174
1.581468 -2.9748898 -0.55919367
2.1666362 -2.9740152 -0.55108953
1.3316076 -2.9693012 -0.55486166
2.0332985 -2.9628215 -0.55646759
3.4795873 -2.9644468 -0.55815202
4.5050087 -2.9595284 -0.55862963
5.2792201 -2.9585378 -0.55957216
6.2598867 -2.9523895 -0.55159116
-1.5478165 -2.9913905 -0.54796827
-0.87483436 -2.9917014 -0.54361534
-0.84020561 -2.9916391 -0.54156214
-0.61350429 -2.991925 -0.54141206
-0.43594334 -2.9901822 -0.54257774
-0.38481146 -2.9952238 -0.54387218
-1.1173699 -2.987458 -0.54889882
-0.97962183 -2.98648 -0.54308492
-0.94458884 -2.9891169 -0.54438949
-0.72849965 -2.9883752 -0.54146153
-0.68490523 -2.9838924 -0.54577827
-0.64339763 -2.9858816 -0.54920697
-0.52170998 -2.9847009 -0.54597616
1.6222696 -2.9721146 -0.54101312
1.8490182 -2.9760845 -0.54260111
1.370594 -2.96805 -0.54224831
3.0645878 -2.9607759 -0.54818368
3.4155045 -2.9616163 -0.5480023
3.7987044 -2.9524779 -0.54013586
3.8660975 -2.951153 -0.54960734
4.4171019 -2.957083 -0.54783607
5.1651039 -2.9537466 -0.54757804
-1.8962642 -2.9944079 -0.53134131
-1.7029574 -2.9970303 -0.53941864
-1.0539696 -2.9906373 -0.5392794
-0.77288818 -2.9935529 -0.5350858
-0.69659662 -2.9910634 -0.5357734
-0.53396261 -2.9967079 -0.53969389
-0.3998535 -2.9937618 -0.53418815
-0.34423369 -2.9916253 -0.53432858
-0.62240243 -2.9865763 -0.53030276
-0.44597346 -2.9895589 -0.5353595
0.48223111 -2.9756463 -0.53173524
1.5893474 -2.9720166 -0.53031605
1.9655653 -2.9734011 -0.53831851
3.355437 -2.9611983 -0.53848857
3.730036 -2.951601 -0.53048515
4.3377652 -2.9589877 -0.5380947
5.0617619 -2.9532757 -0.5367164
-1.8634799 -2.9996996 -0.52194059
-1.6695796 -2.9978175 -0.52857357
-1.4158927 -2.9998708 -0.52738369
-0.9914875 -2.99265 -0.5277741
-0.85023445 -2.9921539 -0.52763999
-0.70745438 -2.9953687 -0.52501917
-0.66533512 -2.9944637 -0.52935702
-0.59247231 -2.990437 -0.52179945
-0.55291277 -2.9917052 -0.52109295
-0.50392413 -2.9904196 -0.52622294
-0.45718992 -2.9976957 -0.52961093
-0.3007322 -2.9925466 -0.52586234
-1.2711513 -2.9887483 -0.52198881
-1.0267832 -2.9897358 -0.52482414
-0.91875803 -2.9882493 -0.52886879
-0.88323569 -2.9865518 -0.52806056
-0.81441748 -2.9861019 -0.52416784
-0.78133899 -2.9883282 -0.52128851
-0.54230928 -2.9874249 -0.52920741
-0.4090977 -2.9882507 -0.52666891
0.49087277 -2.9750862 -0.52269256
1.4130032 -2.9736426 -0.52968198
1.6620578 -2.9672706 -0.52129877
3.2963738 -2.9606197 -0.52913386
3.6747582 -2.9604428 -0.52271634
4.2506056 -2.9539931 -0.52739286
4.9707623 -2.9584334 -0.52715194
-1.9806893 -2.9966142 -0.51907724
-1.5292151 -2.9992061 -0.51190042
-1.3808255 -2.99052 -0.51392269
-1.2441413 -2.9942887 -0.51052374
-1.1403737 -2.9969323 -0.51274717
-1.0006191 -2.9913387 -0.51091236
-0.7495752 -2.9941239 -0.51814795
-0.67519134 -2.9949253 -0.51843977
-0.60337073 -2.9966679 -0.51316655
-0.5239895 -2.9941225 -0.51023668
-0.47569612 -2.9906583 -0.51326388
-0.42946896 -2.9938169 -0.51423472
-0.37459248 -2.9964726 -0.51804948
-0.26892102 -2.9955015 -0.5109241
-1.0999799 -2.9886639 -0.51676935
-0.96352208 -2.9873919 -0.51227254
-0.89273328 -2.9861412 -0.51323158
-0.71563202 -2.9891376 -0.51218575
-0.64240032 -2.9894004 -0.5101124
-0.63168484 -2.9841287 -0.51959258
-0.51295495 -2.9859595 -0.5171659
-0.38335872 -2.9889913 -0.51063114
1.4504576 -2.9681628 -0.51408315
2.1670403 -2.9617741 -0.51042348
2.2083468 -2.9638147 -0.51995981
3.607388 -2.9583633 -0.51324809
4.1670995 -2.9500206 -0.51713961
-1.7890425 -2.9938476 -0.50059599
-1.4962004 -2.9972379 -0.50053257
-1.2815281 -2.9911776 -0.50091368
-1.0732149 -2.9908545 -0.50371516
-0.7592051 -2.9946244 -0.50579023
-0.43913862 -2.9941766 -0.50731945
-0.34922236 -2.9920986 -0.50001514
-0.79076821 -2.9878833 -0.5082162
-0.68289316 -2.9867463 -0.50582987
-0.61119759 -2.98842 -0.50178331
-0.57150614 -2.988678 -0.50224817
1.5243305 -2.9715855 -0.50919074
2.1339562 -2.9705508 -0.50278538
1.2810776 -2.9690506 -0.50788623
1.8517619 -2.965754 -0.50782496
1.9712021 -2.96823 -0.50236237
3.5479224 -2.9617555 -0.50489074
4.0340056 -2.9627595 -0.50079775
4.099247 -2.9559791 -0.50880837
4.7652235 -2.9492905 -0.50554895
-1.0113121 -2.9956591 -0.49485967
-0.62097192 -2.9908078 -0.49213186
-0.54260701 -2.9930117 -0.49272984
-0.45853472 -2.9978452 -0.49352193
-0.93717253 -2.9865212 -0.49766678
-0.90252286 -2.9876337 -0.49857181
-0.83309275 -2.9852464 -0.49672776
-0.72401547 -2.9848351 -0.4995777
-0.69210064 -2.9862683 -0.49445355
-0.65150231 -2.9879372 -0.49925673
-0.57997584 -2.9842749 -0.49210173
-0.49450424 -2.989491 -0.49737996
-0.4112204 -2.9851446 -0.49087763
0.92391545 -2.9713814 -0.49118802
3.0820775 -2.968982 -0.49519265
3.4841576 -2.960434 -0.49592918
4.6920862 -2.9609005 -0.49786192
3.9531081 -2.9565868 -0.49086475
-1.3645407 -3.0021338 -0.48126128
-1.8694077 -2.9944293 -0.48925942
-1.8360515 -2.9984818 -0.48032165
-1.7197671 -2.9939861 -0.48073161
-1.5381718 -2.9989569 -0.48587653
-1.462906 -2.9940019 -0.48906836
-0.81043124 -2.9927502 -0.48256728
-0.36861178 -2.9976435 -0.48957035
-0.32518736 -2.992362 -0.48224637
-0.31585008 -2.9910717 -0.48709026
-1.0448891 -2.9880891 -0.48989975
-0.98248875 -2.9894736 -0.48017347
-0.87714207 -2.9880779 -0.48391822
-0.62896538 -2.9854786 -0.48100668
-0.58994621 -2.988595 -0.48330975
-0.55060762 -2.9866493 -0.48276001
-0.502873 -2.9840596 -0.48836991
-0.46601498 -2.9865389 -0.48412055
1.2236328 -2.9723654 -0.48583519
1.2921927 -2.9751453 -0.48571059
1.3595678 -2.9720864 -0.48278731
1.784601 -2.9714689 -0.48982927
1.8998171 -2.9713573 -0.48456407
3.4162045 -2.9542837 -0.48637903
3.8773534 -2.9528766 -0.48156327
4.5874195 -2.9507613 -0.48686099
5.501472 -2.9536369 -0.48523843
-1.7982278 -2.9944901 -0.47018683
-1.6889368 -2.9999564 -0.47189113
-1.5018897 -2.9907796 -0.47408777
-1.4297795 -2.9903841 -0.477662
-0.52225155 -2.9917002 -0.4730728
-0.47620407 -2.9937549 -0.4777554
-0.43045184 -2.9917345 -0.47852054
-0.39552993 -2.9947712 -0.47079474
-0.38650921 -2.9944162 -0.47697645
-0.33487171 -2.9975791 -0.47791705
-0.74216801 -2.9848931 -0.47543496
-0.63877827 -2.9898193 -0.47136351
-0.43834522 -2.984303 -0.47029656
0.45989442 -2.9754336 -0.47537449
0.49604902 -2.9774554 -0.47675541
2.0199149 -2.9724553 -0.47645688
3.818393 -2.9609947 -0.47432384
3.2998321 -2.9558196 -0.47002396
3.3567846 -2.9544563 -0.47802809
4.5065126 -2.9544721 -0.47835732
-1.7640945 -2.9960487 -0.46104085
-1.1958849 -2.9968634 -0.4663116
-1.1279297 -2.9913955 -0.46119484
-0.75317353 -2.9940479 -0.46460786
-0.53114456 -2.9921319 -0.4646104
-0.44809282 -2.9905491 -0.46421596
-0.40378171 -2.9902442 -0.46365729
-0.36093143 -2.9917176 -0.46037373
-0.35197777 -2.9903975 -0.4658145
-0.88640177 -2.9895878 -0.46952409
-0.85128832 -2.9863396 -0.46899152
-0.64656413 -2.9854774 -0.46013933
-0.60709524 -2.9856489 -0.46329659
-0.56837392 -2.9865687 -0.46455726
-0.49278158 -2.9867787 -0.46096176
-0.48441881 -2.9892874 -0.46926007
0.46970403 -2.9885869 -0.46869603
1.6821599 -2.9728999 -0.46238023
2.1405044 -2.9679537 -0.46433428
3.7525985 -2.9627035 -0.46624529
4.3488588 -2.9605982 -0.46178728
4.4267192 -2.9575531 -0.4699707
5.2863655 -2.9574778 -0.46641907
-1.8789077 -2.9959195 -0.45757779
-1.7276213 -2.9929144 -0.45126787
-1.5444151 -2.9943061 -0.45901838
-0.76207685 -2.9955435 -0.45235211
-0.50195402 -2.9901257 -0.45347172
-0.42202887 -2.9968662 -0.45152673
-0.41295704 -2.9935505 -0.45767105
-0.31554946 -2.9972711 -0.45736229
-1.2307059 -2.9897895 -0.45629716
-0.82630908 -2.9871728 -0.45456976
-0.79268408 -2.9862194 -0.45311594
-0.68715489 -2.9879742 -0.45534012
-0.57746619 -2.9889693 -0.45562625
1.9403495 -2.9648135 -0.45808777
3.6241109 -2.9652574 -0.45046899
3.6924682 -2.9678922 -0.45886219
4.2680278 -2.9602134 -0.45329159
-1.8099118 -3.000262 -0.44037524
-1.8423011 -2.9948931 -0.44845077
-1.5874722 -2.9983292 -0.44279665
-1.1381978 -2.9966581 -0.44300443
-1.000911 -2.9934838 -0.44771463
-0.83766526 -2.9982305 -0.442509
-0.62528235 -2.9914591 -0.44410235
-0.54810673 -2.991081 -0.44693926
-0.5105018 -2.9905593 -0.44536069
-0.4742893 -2.9937215 -0.44246951
-0.46578923 -2.9933054 -0.44996858
-0.42974192 -2.9913871 -0.44383523
-0.38706356 -2.9947484 -0.44301212
-0.37866265 -2.995363 -0.44920561
-0.32799283 -2.9923582 -0.44896266
-1.2685465 -2.9897711 -0.44632223
-1.0991389 -2.9898777 -0.44897389
-0.80112898 -2.9867771 -0.44003204
-0.65517819 -2.985976 -0.44956449
2.0601478 -2.9639096 -0.44725394
3.5621669 -2.9667954 -0.44286323
4.1956358 -2.9644494 -0.44568288
5.0840092 -2.9613209 -0.44871518
-1.928491 -3.0038822 -0.43510443
-1.4512104 -3.000638 -0.43052283
-1.5519692 -2.9931998 -0.43261632
-1.4795943 -2.9935164 -0.43920067
