# .PCD v0.7 - Point Cloud Data file format
VERSION 0.7
FIELDS x y z
SIZE 4 4 4
TYPE F F F
COUNT 1 1 1
WIDTH 593
HEIGHT 1
VIEWPOINT 0 0 0 1 0 0 0
POINTS 593
DATA ascii
-2.6725428 -3.0128136 -1.2272093
-1.6067032 -3.0035753 -1.183656
-1.2351646 -3.0025599 -1.161525
-1.0781208 -3.0001652 -1.163933
-1.0345207 -2.9996192 -1.156118
-0.33867827 -3.0287592 -1.1378547
0.37600026 -2.5129437 -1.0753384
0.83066231 -2.6779494 -1.0607541
0.27294624 -2.4727957 -1.0621159
0.5659582 -2.3716722 -1.0603735
0.61208367 -2.4134538 -1.0572509
0.73063231 -2.4131255 -1.0420349
0.6269812 -2.4019988 -1.0415418
2.2130992 -2.6970725 -1.0036385
2.2195621 -2.6572495 -1.0065159
2.2218564 -2.6130888 -1.0075374
2.2136488 -2.5573902 -1.003883
2.2084973 -2.5064054 -1.0015895
2.2153955 -2.4701056 -1.0046608
2.8401403 -2.6620774 -0.99258935
2.4016955 -2.4163909 -0.98720521
2.281513 -2.3942368 -0.98602766
2.6261492 -2.3871005 -0.97123104
0.26553103 -0.21328217 -0.91154665
0.24840681 -0.22907449 -0.9095543
0.26421559 -0.2247602 -0.90724397
0.24819335 -0.21209984 -0.9088099
0.24791987 -0.20353328 -0.90785611
0.26297143 -0.20278023 -0.90317458
0.27854386 -0.20249808 -0.90006745
0.26379725 -0.19514795 -0.90587562
0.27881575 -0.19439891 -0.90090412
0.24811356 -0.18715364 -0.90853161
0.29560134 -0.18663828 -0.90103692
0.24768524 -0.17041671 -0.90703785
0.26404002 -0.16238755 -0.90666968
0.27913314 -0.165775 -0.90188098
0.27892739 -0.15338644 -0.9012478
0.29674798 -0.15428177 -0.90436703
0.28028086 -0.14602421 -0.90541333
0.3647857 -0.14703557 -0.90080398
0.26327449 -0.13753174 -0.9041658
0.27960971 -0.12536404 -0.90334773
0.27880269 -0.096873462 -0.90086395
0.27848884 -0.22757241 -0.89989805
0.29277593 -0.22630996 -0.89283139
0.30889228 -0.22660491 -0.89096075
0.27763352 -0.21844687 -0.89726567
0.29502535 -0.21970512 -0.89936417
0.30944923 -0.21438891 -0.89249092
0.3268595 -0.21128002 -0.89350927
0.37886864 -0.21394187 -0.89206243
0.49299157 -0.21421361 -0.89285761
0.29314953 -0.20568639 -0.89391637
0.2950182 -0.19455391 -0.89934337
0.30992639 -0.19381358 -0.89380193
0.34639019 -0.19662125 -0.89906901
0.435251 -0.19211413 -0.89432347
0.26146427 -0.18510196 -0.8982448
0.27755669 -0.18521868 -0.89702922
0.30953726 -0.18524861 -0.8927328
0.34305185 -0.18616307 -0.89080644
0.45462036 -0.18470636 -0.89474916
0.29297742 -0.17662819 -0.89341652
0.34616235 -0.17114668 -0.89850515
0.36226457 -0.17527254 -0.89486456
0.29344618 -0.1646229 -0.89477795
0.30934712 -0.1686257 -0.89221042
0.34345424 -0.16135831 -0.89180231
0.31006214 -0.15263024 -0.89417487
0.361137 -0.15371849 -0.89220816
0.38232905 -0.15591401 -0.89983463
0.29433104 -0.14475846 -0.89734769
0.32610136 -0.14432436 -0.89153421
0.29380941 -0.13636799 -0.89583284
0.30865654 -0.13562766 -0.89031303
0.43450069 -0.13115542 -0.89285088
0.29197636 -0.12739192 -0.89050925
0.34335494 -0.12831388 -0.89155656
0.36353716 -0.12977836 -0.89786261
0.29499578 -0.11269283 -0.89927828
0.30883443 -0.11955909 -0.89080179
0.3115963 -0.11264835 -0.89839
0.32755455 -0.11233021 -0.89531988
0.34313887 -0.11187782 -0.89102179
0.39758009 -0.11319662 -0.89339709
0.27849334 -0.10474254 -0.89991188
0.29373243 -0.10412827 -0.89560926
0.32865441 -0.10461017 -0.89818513
0.34354666 -0.10387943 -0.89203107
0.36182076 -0.10432857 -0.89381897
0.29308927 -0.095884927 -0.89374137
0.30857894 -0.095388323 -0.89009982
0.32652959 -0.095749497 -0.89264977
0.34504369 -0.096237451 -0.8957364
0.36067137 -0.095755592 -0.89111125
0.45245901 -0.097208917 -0.89068425
0.27812836 -0.080692492 -0.89878863
0.29274517 -0.087798335 -0.8927421
0.30923766 -0.087624021 -0.89190966
0.31055376 -0.080043577 -0.89552563
0.37987477 -0.088107869 -0.89432222
0.39890653 -0.088525228 -0.89624166
0.29490307 -0.072569072 -0.89900905
0.32604033 -0.07147646 -0.89137524
0.34349522 -0.079517946 -0.89190376
0.36115906 -0.075499602 -0.89226019
0.37821543 -0.079430968 -0.89059532
0.39802706 -0.079970635 -0.89435565
0.29351798 -0.064225376 -0.89498645
0.3107354 -0.064095132 -0.8960247
0.34369978 -0.063413143 -0.8924101
0.45365456 -0.063414849 -0.89293277
0.31096083 -0.056163788 -0.896644
0.31048018 -0.048087485 -0.89532346
0.32639292 -0.047561102 -0.89229375
0.34491962 -0.047527928 -0.89542931
0.37937239 -0.046919156 -0.89319384
0.39671504 -0.046623018 -0.89154202
0.31047022 -0.032182477 -0.8952961
0.32666078 -0.03562475 -0.89299154
0.34416577 -0.031291783 -0.89356339
0.36036217 -0.038825952 -0.89038277
0.37796551 -0.038533039 -0.89003396
0.39713877 -0.030230312 -0.89245069
0.29370824 -0.02473774 -0.89553899
0.32616249 -0.023610706 -0.89169341
0.41456854 -0.02983545 -0.89043725
0.39659682 -0.013752806 -0.89128846
0.29203463 0.014650567 -0.89067852
0.32611483 0.016126558 -0.89156932
0.29267463 0.022495722 -0.89253718
0.32610244 0.024067705 -0.89153701
4.1035404 -1.9569988 -0.88159055
0.49117327 -0.24071896 -0.88970816
0.39489231 -0.21395296 -0.88763314
0.43213546 -0.2168958 -0.88820887
0.45142651 -0.21861838 -0.88874245
0.43173486 -0.20787999 -0.88742268
0.52718055 -0.20582867 -0.88182741
0.5508458 -0.20899044 -0.88596833
0.35939658 -0.1947709 -0.88810802
0.3764964 -0.19540036 -0.88673431
0.50936639 -0.19607662 -0.88630056
0.32468233 -0.1847294 -0.88783747
0.41296315 -0.18481916 -0.88714564
0.43030354 -0.18103684 -0.88461357
0.4895629 -0.18561961 -0.88691896
0.50730973 -0.18619035 -0.88287771
0.54765403 -0.18922447 -0.88105339
0.56988561 -0.18217896 -0.88219684
0.30845156 -0.17630367 -0.88974988
0.43286484 -0.17355542 -0.88964039
0.48604265 -0.17527299 -0.8808217
0.54853296 -0.17126128 -0.88240683
0.32529336 -0.16442996 -0.88942927
0.35823786 -0.1606327 -0.88537818
0.37538034 -0.16528794 -0.88422763
0.39452574 -0.16244152 -0.88684702
0.41095275 -0.16249588 -0.88302374
0.43138865 -0.16427353 -0.88674313
0.44748151 -0.16414931 -0.88132298
0.46686018 -0.16536719 -0.88159591
0.48590547 -0.16640091 -0.88058406
0.52781934 -0.16075823 -0.88284963
0.63611794 -0.16882153 -0.8800956
0.3071987 -0.15919933 -0.88630766
0.34218207 -0.1524395 -0.88865364
0.39310223 -0.15337698 -0.88379431
0.41120318 -0.15412599 -0.88353717
0.4519164 -0.15728235 -0.88966376
0.5070672 -0.15485197 -0.88247406
0.52656537 -0.15136464 -0.88084292
0.54923755 -0.15330699 -0.88349181
0.30718356 -0.14297622 -0.88626611
0.3761234 -0.14475249 -0.88589656
0.41185257 -0.14593366 -0.88486868
0.43189219 -0.14731456 -0.88773143
0.44985607 -0.14783345 -0.88578886
0.46789539 -0.14835878 -0.8834635
0.48623881 -0.14023694 -0.88116145
0.52944624 -0.14334686 -0.88545322
0.56862116 -0.1450004 -0.88032222
0.32517689 -0.13571724 -0.88912588
0.34175891 -0.13581175 -0.88760626
0.37508321 -0.13601637 -0.88356018
0.39306346 -0.13662207 -0.8837111
0.43074927 -0.13834623 -0.88548833
0.44821599 -0.13863987 -0.88270432
0.4683063 -0.13117647 -0.8842048
0.52967578 -0.13446531 -0.88582063
0.30841988 -0.12743376 -0.88966286
0.32351562 -0.12685454 -0.88479817
0.37587017 -0.12391362 -0.88532776
0.39237022 -0.12803057 -0.8822245
0.41203475 -0.12494557 -0.88524222
0.44899243 -0.12180548 -0.88416457
0.59053451 -0.12805866 -0.88023257
0.61466062 -0.12051646 -0.88241351
0.29075885 -0.11882133 -0.88697332
0.34085253 -0.11912736 -0.88536286
0.35826254 -0.11536391 -0.88543636
0.37740326 -0.11210205 -0.88877118
0.41370201 -0.11290526 -0.88866055
0.43293813 -0.11359412 -0.88978422
0.44863108 -0.11317582 -0.88348502
0.46952948 -0.11429486 -0.88641149
0.48820215 -0.11472468 -0.88456208
0.56980968 -0.11804545 -0.88208425
0.30755836 -0.10299635 -0.88729584
0.37704524 -0.10373884 -0.88796705
0.39260551 -0.10328522 -0.88272911
0.41375902 -0.10453424 -0.88877743
0.44823334 -0.1045705 -0.88273692
0.46672282 -0.1049245 -0.88134813
0.59150386 -0.10081131 -0.88161689
0.61665803 -0.10236557 -0.88516277
0.37746409 -0.09564469 -0.88890773
0.39471951 -0.09566123 -0.88726258
0.41334841 -0.096049175 -0.88793558
0.43123046 -0.096199393 -0.88643271
0.46724126 -0.096518703 -0.88228339
0.49081409 -0.098028786 -0.88908607
0.52649534 -0.098144852 -0.88073081
0.59268498 -0.091920398 -0.8833037
0.32401854 -0.086888373 -0.88610822
0.34093389 -0.086836845 -0.88556427
0.35910299 -0.08713007 -0.88741636
0.41377556 -0.08781635 -0.88881135
0.43032286 -0.087566294 -0.88465148
0.44779557 -0.087548859 -0.8819136
0.46676069 -0.087877482 -0.8814165
0.50761938 -0.08477895 -0.88339305
0.5296514 -0.081204735 -0.88578159
0.30674145 -0.070966117 -0.88505137
0.32504115 -0.079203404 -0.88877225
0.34006837 -0.070554033 -0.88342202
0.37652361 -0.0708334 -0.88679546
0.39290822 -0.07050211 -0.88337827
0.41130015 -0.074749738 -0.88373601
0.43205282 -0.075401567 -0.88804674
0.44768319 -0.070694014 -0.88170224
0.46717152 -0.075208269 -0.88215762
0.48582396 -0.07962431 -0.88044292
0.52747965 -0.071999386 -0.88230604
0.35888323 -0.062774695 -0.88689858
0.37520492 -0.062403068 -0.88383359
0.39532846 -0.062821418 -0.88856846
0.41399446 -0.062896945 -0.88926017
0.42874527 -0.062194072 -0.88155526
0.46702695 -0.062463172 -0.88189679
0.54853475 -0.063605703 -0.88240963
0.59082121 -0.064308099 -0.880642
0.32225144 -0.054643549 -0.88150477
0.34058803 -0.054697398 -0.88470829
0.35953307 -0.054834843 -0.88842958
0.37588257 -0.054428432 -0.88535559
0.39266601 -0.054106053 -0.88285881
0.41342071 -0.054495603 -0.88808382
0.42905629 -0.05394965 -0.88216567
0.44836733 -0.054037593 -0.88298893
0.52828568 -0.05461273 -0.883596
0.59067798 -0.055237304 -0.88043737
0.36015612 -0.046872083 -0.88989735
0.40975317 -0.045635112 -0.88056427
0.43114614 -0.045978591 -0.88626724
0.44818985 -0.045630727 -0.88265514
0.46960342 -0.045917105 -0.88654488
0.4888064 -0.045861345 -0.88560867
0.50864565 -0.045882195 -0.88510102
0.52809978 -0.045840353 -0.88329852
0.5482021 -0.045875523 -0.88189739
0.56842953 -0.04591817 -0.88003814
0.30656123 -0.039430682 -0.88455617
0.34025618 -0.038696878 -0.88388687
0.35780939 -0.03040917 -0.88436884
0.37774667 -0.030369291 -0.88954246
0.39441106 -0.038062561 -0.88660109
0.41086274 -0.037597876 -0.8828392
0.44750908 -0.037175134 -0.88137484
0.46600085 -0.036973309 -0.88004565
0.55069029 -0.037333414 -0.88572884
0.30820855 -0.023953781 -0.88908219
0.3401933 -0.022792725 -0.88373119
0.35952085 -0.022590555 -0.88840079
0.37627965 -0.022088403 -0.88624752
0.39139426 -0.02141735 -0.88013154
0.41167668 -0.021275522 -0.88450801
0.44852829 -0.024757884 -0.88329172
0.48583326 -0.028422885 -0.88045901
0.50558859 -0.028269531 -0.88001323
0.52707624 -0.028280245 -0.88166046
0.59054691 -0.028147433 -0.88025022
0.30831423 -0.016088439 -0.88937259
0.32412541 -0.015457486 -0.88638669
0.34105873 -0.014936145 -0.88587326
0.35925367 -0.014524637 -0.88777131
0.41357028 -0.013218423 -0.88839048
0.42921337 -0.01258535 -0.88247401
0.46997887 -0.01203608 -0.88722223
0.48720303 -0.01152701 -0.88283157
0.54901773 -0.019503202 -0.88315332
0.61444885 -0.010054537 -0.88212204
0.30737075 -0.0081421696 -0.88678032
0.32492834 -0.0076159346 -0.8884784
0.34077519 -0.0069637271 -0.88517147
0.35856825 -0.0064475373 -0.88615662
0.37528926 -0.0058581736 -0.88402301
0.42842019 -0.0042814668 -0.88091725
0.44678378 -0.0037942349 -0.88001072
0.50610894 -0.0025552262 -0.88087922
0.57074034 -0.0015629843 -0.88346404
0.29169798 0.006831591 -0.88970077
0.324669 0.0082203168 -0.88780278
0.34048498 0.0049546044 -0.88445312
0.35904774 0.00555804 -0.88728619
0.37658077 0.0021422205 -0.88692379
0.39382023 0.0027521793 -0.88533401
0.43077138 0.0038672388 -0.88553172
0.44733825 0.0044940771 -0.88105357
0.48592597 0.005536261 -0.88061965
0.35947263 0.017582901 -0.88828719
0.37622422 0.014275853 -0.886123
0.41074592 0.01563832 -0.88259971
0.43082058 0.012148091 -0.88562828
0.44691992 0.012818558 -0.88026679
0.48598149 0.014017807 -0.88071579
0.50626314 0.014598529 -0.88113588
0.30849043 0.023262242 -0.88985664
0.34162819 0.024815897 -0.88728273
0.37418348 0.026331563 -0.8815394
0.39344263 0.027142227 -0.88452429
0.43060178 0.02456595 -0.88519889
0.44740641 0.02112622 -0.88118172
0.46784127 0.021816432 -0.88336587
0.50628239 0.023176713 -0.88116795
0.56925839 0.02516368 -0.88126695
0.32492834 0.039869051 -0.8884784
0.35824588 0.033586759 -0.88539708
0.39213002 0.035213653 -0.88170934
0.41112953 0.036097061 -0.88338619
0.46685389 0.030220086 -0.88158458
0.3072888 0.046765555 -0.88655519
0.32448357 0.047745503 -0.88731974
0.35925367 0.049690437 -0.88777131
0.37610248 0.042516828 -0.88584954
0.39247784 0.043336209 -0.88245529
0.4481917 0.046125207 -0.8826586
0.50610894 0.048908655 -0.88087922
0.32437235 0.055645723 -0.88702995
0.35874015 0.057669118 -0.88656157
0.39336178 0.055581454 -0.8843509
0.48620364 0.05645721 -0.88110054
0.3228049 0.063333593 -0.88294661
0.35741922 0.065522633 -0.88344961
0.32407576 0.071436539 -0.88625735
0.42923355 0.074112773 -0.88251364
0.44832313 0.07535018 -0.88290578
0.48633257 0.073475219 -0.88132387
0.34051156 0.084413067 -0.88451898
0.37531492 0.082827888 -0.88408065
0.41062781 0.085228033 -0.88235748
1.2086452 -0.21004939 -0.87211341
1.2569052 -0.20282021 -0.87295693
0.63340235 -0.1966313 -0.8764919
0.54569387 -0.16118926 -0.87803507
0.68111581 -0.16251993 -0.8760795
0.75583285 -0.16906357 -0.87287891
0.56611705 -0.15334664 -0.87660968
0.587457 -0.15478316 -0.87583739
0.65640271 -0.15071169 -0.87561762
0.72833157 -0.14630967 -0.87181157
0.4652504 -0.13877489 -0.87869185
0.48495498 -0.13111864 -0.87893778
0.5041188 -0.13184984 -0.87756717
0.56666833 -0.13533808 -0.87742704
0.44607133 -0.12936373 -0.87867075
0.46462038 -0.12141088 -0.87755525
0.50326824 -0.12285898 -0.87615156
0.52305037 -0.12366743 -0.87521774
0.63052374 -0.12016346 -0.8726719
0.65600479 -0.12204549 -0.87510836
0.67803717 -0.12310092 -0.87227774
0.50441551 -0.11446549 -0.87806088
0.54635006 -0.11647359 -0.87904549
0.58901018 -0.11851156 -0.87805557
0.68258649 -0.11447623 -0.87789565
0.42715111 -0.10343979 -0.87842655
0.48481652 -0.10515461 -0.87869799
0.503483 -0.10552211 -0.87650895
0.5232842 -0.10615772 -0.87559193
0.56660593 -0.10823409 -0.87733448
0.58629817 -0.10876156 -0.8741824
0.60781521 -0.10968848 -0.87299162
0.63257164 -0.10197796 -0.87538946
0.50455344 -0.097108327 -0.87829053
0.54490399 -0.098335542 -0.87681878
0.56530714 -0.094488248 -0.87540901
0.63501918 -0.09314014 -0.87863749
0.48287591 -0.087533526 -0.87533677
0.52177423 -0.088338017 -0.8731755
0.54275012 -0.084631413 -0.87350202
0.56558377 -0.081141762 -0.87581909
0.58868819 -0.082062431 -0.87759572
0.60794789 -0.08225926 -0.87317425
0.65514904 -0.084140696 -0.87401307
0.68032384 -0.085303023 -0.87510157
0.7546373 -0.088424392 -0.87155116
0.44635615 -0.078802988 -0.87920648
0.48525566 -0.070949614 -0.87945861
0.50497693 -0.071231358 -0.8789953
0.54430014 -0.071720377 -0.87588888
0.5655244 -0.072215609 -0.87573111
0.60614204 -0.072845861 -0.87068874
0.65449929 -0.074658491 -0.8731814
0.48514682 -0.06238969 -0.87927008
0.52473533 -0.062786445 -0.87791425
0.56709218 -0.063560866 -0.87805539
0.60779941 -0.064017326 -0.87296987
0.62890166 -0.064344697 -0.87051928
0.65379775 -0.065203257 -0.8722834
0.70373541 -0.066858716 -0.87315118
0.46543247 -0.053739674 -0.87902027
0.48200953 -0.053369947 -0.87383616
0.5047217 -0.053948577 -0.87857056
0.54404598 -0.054107256 -0.87549758
0.56471622 -0.054315384 -0.87453288
0.60589641 -0.054676373 -0.87035066
0.63115776 -0.055457298 -0.87351322
0.6080485 -0.045887124 -0.87331271
0.63096684 -0.046232376 -0.87325984
0.6540823 -0.046585884 -0.87264764
0.67926598 -0.047157086 -0.87379521
0.42776766 -0.03720025 -0.87963665
0.48309723 -0.036594987 -0.87572008
0.50379586 -0.036650855 -0.87702966
0.52364153 -0.036591686 -0.87616384
0.56652212 -0.036800586 -0.87721032
0.58739179 -0.036824863 -0.87574422
0.60780972 -0.036795951 -0.87298405
0.65752912 -0.037617173 -0.87705934
0.67651391 -0.037429862 -0.87039661
0.70253962 -0.03792271 -0.8717261
0.42752632 -0.028923236 -0.87916297
0.46477938 -0.028426085 -0.87784207
0.54498041 -0.027931871 -0.87693638
0.56568611 -0.027852643 -0.87597084
0.60693705 -0.027665045 -0.87178296
0.6304388 -0.027818743 -0.87255913
0.46352121 -0.019927321 -0.87557232
0.48553744 -0.019898044 -0.87994665
0.50434315 -0.015306259 -0.87794054
0.52394593 -0.014998673 -0.87665093
0.54212999 -0.010251142 -0.87254721
0.56518221 -0.014545065 -0.87522376
0.58391815 -0.018637218 -0.87078333
0.62950063 -0.018587824 -0.87131417
0.39121041 -0.0052220323 -0.87973726
0.4084219 -0.0046702139 -0.87783474
0.46428847 -0.0032610837 -0.87695646
0.48383415 -0.0028392859 -0.87699646
0.52285105 -0.0019902808 -0.87489879
0.54445243 -0.0016681917 -0.87612337
0.58534276 -0.0053729457 -0.87281787
0.6093244 -0.00069515751 -0.87506884
0.63031793 -0.0094929961 -0.87239873
0.65220356 -0.0092886984 -0.87024301
0.67736518 -0.0092673413 -0.87144792
0.4658311 0.0050446698 -0.87973946
0.50157064 0.0061780699 -0.8733263
0.52454019 0.0065684845 -0.87760192
0.54564518 0.0070214458 -0.87796009
0.565817 0.0075018462 -0.87616491
0.58553237 0.007992032 -0.87308872
0.6076774 0.0084045473 -0.87280196
0.68082094 0.0094359135 -0.87571543
0.70374525 0.0098150568 -0.87316293
0.39048442 0.010954503 -0.87818038
0.54461831 0.01578222 -0.87637883
0.56364501 0.016367333 -0.87294477
0.58559924 0.016901147 -0.87318426
0.60598356 0.017453277 -0.87047052
0.67712295 0.018929666 -0.87114877
0.44645044 0.029425155 -0.8793838
0.48449999 0.022500001 -0.87814975
0.52038074 0.023846367 -0.87094539
0.54572833 0.024508756 -0.87808806
0.60953325 0.026450336 -0.87535632
0.63491482 0.027081676 -0.87849903
0.46437687 0.038535837 -0.87711596
0.48420385 0.03518806 -0.87763679
0.50317305 0.031702537 -0.87599307
0.52248049 0.032450732 -0.87430573
0.56252664 0.033942576 -0.87128675
0.58789343 0.03475564 -0.87646067
0.60892236 0.035491027 -0.87451547
0.63007635 0.03621836 -0.87207818
0.46574241 0.04697248 -0.87957942
0.48533365 0.047917817 -0.87959367
0.50466043 0.04028007 -0.87846857
0.52242082 0.041054439 -0.87421024
0.56637615 0.042842969 -0.87699383
0.61002815 0.044565935 -0.87603748
0.37302884 0.058345746 -0.87894607
0.46561825 0.055354849 -0.87935543
0.50134146 0.057168823 -0.87294489
0.52377093 0.05836197 -0.87637085
0.54410732 0.055051334 -0.87559193
0.56403226 0.051576219 -0.87351888
0.60756171 0.053517301 -0.8726427
0.63229084 0.054593649 -0.87501687
0.65545481 0.055583216 -0.87440437
0.46594295 0.063778281 -0.87994123
0.48303983 0.06467995 -0.87562066
0.54412067 0.068128146 -0.8756125
0.56546193 0.064876795 -0.87563848
0.58469158 0.061408427 -0.87188792
0.62851357 0.063551649 -0.8700043
0.56624454 0.078232341 -0.87679875
0.58563715 0.070389949 -0.87323838
0.50276774 0.082882181 -0.87531853
0.52258366 0.084162325 -0.87447089
0.56484765 0.086944804 -0.87472779
0.58681923 0.088385694 -0.87492657
0.54548556 0.094544254 -0.87771428
0.54350311 0.10304631 -0.87466151
0.6522398 0.10178614 -0.87028939
0.60561508 -0.090941392 -0.86996347
0.62784564 -0.082568683 -0.86911786
0.5829255 -0.072047576 -0.86936569
0.72218663 -0.066784441 -0.86474258
0.74857426 -0.067765027 -0.86481744
0.67192441 -0.055710271 -0.86472911
0.58190626 -0.045131393 -0.86791009
0.69764936 -0.046969604 -0.86589813
0.7212159 -0.047348976 -0.86362594
0.7489357 -0.048155885 -0.86521888
0.64986235 -0.027614342 -0.86724639
0.67182153 -0.02762772 -0.86460209
0.69711065 -0.027911404 -0.86525613
0.64828962 -0.018270068 -0.8652333
0.67210323 -0.018309707 -0.86494988
0.69419205 -0.018227113 -0.86177784
0.62687641 -0.00019470554 -0.86783165
0.69764209 -0.0089754099 -0.86588943
0.62579226 0.0089311739 -0.86639297
0.64905441 0.0047033704 -0.86621219
0.67377114 0.0002839065 -0.86700964
0.6952579 0.00060198392 -0.86304808
0.62766916 0.017979899 -0.86888373
0.64949811 0.018498272 -0.86678016
0.6501385 0.027704766 -0.86759984
0.67463148 0.028319418 -0.86807203
0.65011376 0.036919989 -0.86756814
0.67460579 0.037674263 -0.86804032
0.62579226 0.045232177 -0.86639297
0.65127063 0.046169411 -0.86904883
0.66949493 0.04688878 -0.86172897
0.58312732 0.052432895 -0.86965394
0.60446262 0.062361918 -0.86837715
0.59930629 0.079885349 -0.86128014
0.60366815 0.071291067 -0.86728364
0.6743353 0.084475897 -0.86770636
0.55984217 0.16586769 -0.86730683
0.40308583 0.29209742 -0.86689413
4.34232 -1.7430748 -0.85264796
4.3355455 -1.6956081 -0.85133106
4.3457012 -1.6552076 -0.85330516
4.3407845 -1.6091559 -0.8523494
4.361239 -1.572898 -0.85632539
4.3545675 -1.5267218 -0.85502863
1.380988 -0.202209 -0.85295802
1.5009651 -0.20182911 -0.85381502
1.6289598 -0.20059501 -0.85042602
1.7829126 -0.20076118 -0.85040367
1.1436497 -0.074849233 -0.85736048
0.343499 0.42752263 -0.85065562
0.38033602 0.42914945 -0.85641712
0.41079614 0.40451828 -0.84632814
0.4088425 0.41200116 -0.84249389
2.1456854 -0.19955418 -0.83977801
0.99581701 0.19230489 -0.83471614
1.1518849 0.3229548 -0.83236945
4.6509042 -1.5358609 -0.82789403
1.1860958 0.32838389 -0.82519543
2.6188781 -0.19655743 -0.81382811
2.7953565 -0.18560842 -0.8139593
1.4327197 0.46300086 -0.81598592
1.3536078 0.48715749 -0.8040058
1.4167639 0.48858559 -0.80714148
1.4686282 0.48541903 -0.80200964
4.9905543 -1.2622873 -0.79746574
3.967725 0.50335538 -0.70743114
