# .PCD v0.7 - Point Cloud Data file format
VERSION 0.7
FIELDS x y z
SIZE 4 4 4
TYPE F F F
COUNT 1 1 1
WIDTH 1384
HEIGHT 1
VIEWPOINT 0 0 0 1 0 0 0
POINTS 1384
DATA ascii
1.5426321 -0.15826607 -1.0656822
1.6646516 -0.15084566 -1.0640361
1.6061735 -0.14666705 -1.06757
1.8031055 -0.14318435 -1.0635234
1.7265971 -0.13765639 -1.0606209
1.8480093 -0.14549945 -1.0461848
1.9188923 -0.1313082 -1.0414193
1.8458623 -0.12674002 -1.0449946
2.006103 -0.11734506 -1.0425901
2.0693636 -0.12055221 -1.0290227
2.1575124 -0.10481691 -1.0250823
2.2449536 -0.10919195 -1.017821
2.4666328 -0.097699717 -1.0134416
0.23336768 -0.24690099 -0.91440672
0.2487971 -0.2464198 -0.91091537
0.23369333 -0.23875549 -0.91562206
0.24994141 -0.23906763 -0.91490602
3.1614673 -0.042865384 -0.91893983
0.26249671 -0.24428856 -0.90162176
0.27862933 -0.24464208 -0.90033048
0.31331864 -0.24729149 -0.90312207
0.26398876 -0.23724562 -0.90650207
0.28020927 -0.23756555 -0.90519297
0.2942763 -0.23601903 -0.89718878
0.32634088 -0.2364137 -0.89215821
0.37847936 -0.23539436 -0.89118809
0.41708252 -0.23521006 -0.89559162
0.22582634 -0.24680711 -0.88626206
0.29136223 -0.24196781 -0.88872564
0.32450521 -0.24352382 -0.88737613
0.33956957 -0.24306874 -0.88218743
0.30683994 -0.23340802 -0.88532197
0.33932337 -0.23434678 -0.88157809
0.35844743 -0.23682804 -0.88587195
0.39366537 -0.2349427 -0.8850019
0.43150482 -0.23424837 -0.88697118
0.44893998 -0.23510464 -0.88406593
0.5284313 -0.23404503 -0.883829
0.42942065 -0.2241917 -0.88288075
0.50673562 -0.2221321 -0.88192225
0.5501278 -0.22733194 -0.88486272
0.59073162 -0.21196233 -0.88051409
0.2373293 -0.2426421 -0.87092245
0.2542609 -0.24444519 -0.87468368
0.27021793 -0.24511623 -0.87444282
0.35343477 -0.24179184 -0.87406284
0.36908546 -0.24189852 -0.87008905
0.40468583 -0.23628767 -0.87017465
0.42304227 -0.23798993 -0.87036246
0.46360722 -0.23441443 -0.87572747
0.44542745 -0.22424619 -0.87745982
0.46326551 -0.22530863 -0.87511098
0.48165345 -0.22662811 -0.87321937
0.50112605 -0.22845519 -0.87258637
0.52600449 -0.22363973 -0.87994534
0.56320059 -0.22595124 -0.87228596
0.58436567 -0.22820704 -0.87142253
0.56168586 -0.21598537 -0.87004024
0.70230389 -0.20331192 -0.87144518
0.28437883 -0.24408741 -0.86844444
0.43746799 -0.23729329 -0.8624903
0.49500114 -0.23434824 -0.86239278
0.53836411 -0.23112923 -0.86674821
0.62439436 -0.22200453 -0.86453789
0.65193063 -0.22651723 -0.86989361
0.70084423 -0.22279477 -0.86970562
0.58115309 -0.21743914 -0.86683446
0.6030283 -0.21512032 -0.86640298
0.6268515 -0.21339101 -0.86779863
0.6442734 -0.21389267 -0.86009282
0.67092806 -0.20803264 -0.86349875
0.74744868 -0.20732427 -0.86356735
0.21756119 -0.24534787 -0.85541606
0.29678178 -0.24164297 -0.85768735
0.31096727 -0.24090733 -0.8521086
0.37740323 -0.23704928 -0.8501277
0.45082611 -0.23606859 -0.85266972
0.55058473 -0.22947277 -0.85358214
0.66272259 -0.22450189 -0.85336578
0.66776496 -0.21665227 -0.85959262
0.71160412 -0.21094175 -0.85256886
0.74015439 -0.2151152 -0.85546625
0.69218874 -0.20980746 -0.85939044
0.71744585 -0.20292263 -0.85928899
0.76582515 -0.20799269 -0.85415781
0.770558 -0.1991813 -0.8592332
0.22932619 -0.24195971 -0.84301221
0.24604487 -0.24413037 -0.84781027
0.32649478 -0.24131265 -0.84982622
0.39484185 -0.23854549 -0.8499915
0.40934667 -0.23811828 -0.84348333
0.50418478 -0.2310904 -0.84502643
0.52660704 -0.23456912 -0.84864384
0.56419158 -0.22857516 -0.84261096
0.2276541 -0.24800754 -0.83718097
0.25709754 -0.24045762 -0.83406246
0.30261204 -0.24203767 -0.83034241
0.3375513 -0.23831493 -0.83664376
0.3544983 -0.23986679 -0.83732575
0.42420793 -0.2379729 -0.83755171
0.45965174 -0.2324454 -0.83511126
0.47595781 -0.23310488 -0.83069932
0.53581774 -0.2315848 -0.83168918
0.58272046 -0.22993881 -0.83845162
0.77517366 -0.21613085 -0.83508611
0.2098141 -0.24395308 -0.82650352
0.24008112 -0.24575096 -0.82830364
0.3163242 -0.24130692 -0.82465321
0.27086785 -0.23971282 -0.82920575
0.28553692 -0.2398496 -0.82679236
0.36347762 -0.23574394 -0.8202641
0.43573704 -0.2359045 -0.82544833
0.49175242 -0.23350419 -0.82513052
0.2057827 -0.24669136 -0.81145811
0.25227582 -0.2434984 -0.81922269
0.32695079 -0.23824234 -0.81167048
0.37912765 -0.23645514 -0.81777263
0.44987047 -0.23549657 -0.81816965
0.5069865 -0.23364352 -0.81843096
0.21863034 -0.24531649 -0.80571139
0.23245986 -0.24518149 -0.8033756
0.26361439 -0.24064866 -0.8081401
0.29222327 -0.2409769 -0.80327874
0.34073263 -0.23781446 -0.80640757
0.35403702 -0.23709978 -0.80001867
0.38828319 -0.23291212 -0.80214399
0.40737543 -0.23590766 -0.80589437
0.42300898 -0.23663753 -0.8024863
0.4609254 -0.23344167 -0.80568123
0.51945651 -0.23245411 -0.80743265
0.57665819 -0.22966681 -0.80118984
1.0303181 -0.19154051 -0.80348212
0.24510644 -0.24381441 -0.79715765
0.25947306 -0.24430567 -0.79611278
0.27258503 -0.24356534 -0.79120743
0.27563089 -0.2387055 -0.79957587
0.30510741 -0.23994544 -0.79689068
0.31786779 -0.23891914 -0.79027236
0.36891043 -0.23756039 -0.79682422
0.53115982 -0.23100515 -0.79543668
0.19954616 -0.24632184 -0.78818309
0.21172868 -0.2446131 -0.78164244
0.38118657 -0.2362728 -0.78821611
0.39598086 -0.23674563 -0.78446436
0.42859241 -0.23140971 -0.78131497
0.44938409 -0.23527725 -0.78647327
0.46965858 -0.23029128 -0.78977299
0.48532218 -0.23100707 -0.78507078
0.50259125 -0.23255725 -0.7824288
0.5443179 -0.23036575 -0.78559506
0.22402851 -0.24322544 -0.77579796
0.23678289 -0.2424764 -0.77154034
0.25100887 -0.24331813 -0.77153099
0.29819971 -0.24178994 -0.77979344
0.28220573 -0.23973952 -0.77718216
0.3270095 -0.23519184 -0.77558494
0.34380865 -0.23748422 -0.77808386
0.40799066 -0.23547067 -0.77539253
0.46135211 -0.23403956 -0.7764799
0.51441616 -0.23135872 -0.77152425
0.55499041 -0.22866546 -0.77243578
0.58160025 -0.22542025 -0.77987492
0.60119021 -0.22765262 -0.77737963
0.62542486 -0.22270647 -0.77982432
0.74272436 -0.21067742 -0.77454418
0.1933274 -0.24555199 -0.7649743
0.20615061 -0.24512073 -0.76218939
0.26304445 -0.24194317 -0.7649948
0.30917734 -0.23951924 -0.76979893
0.322229 -0.23910801 -0.76484776
0.33682057 -0.23993842 -0.76309788
0.35495159 -0.23557252 -0.76820439
0.36716571 -0.23456894 -0.76069856
0.47155622 -0.23195709 -0.7638731
1.0166227 -0.18516931 -0.76506996
0.21866632 -0.24436769 -0.758259
0.2314076 -0.24394421 -0.7549969
0.24410976 -0.24352497 -0.75149459
0.2884616 -0.24079408 -0.75569081
0.27323845 -0.23898639 -0.75382161
0.34895846 -0.23892052 -0.75591666
0.39486495 -0.23498631 -0.7517131
0.41455811 -0.23098627 -0.75700682
0.43145922 -0.2329409 -0.75664127
0.48415717 -0.23130217 -0.75509924
0.5408991 -0.23063925 -0.75373596
0.52546436 -0.2298924 -0.7596454
0.56597972 -0.22724064 -0.7598815
0.58217502 -0.22822942 -0.75389779
0.78173226 -0.21386039 -0.75966704
0.28300381 -0.24327166 -0.74218225
0.30013704 -0.23943387 -0.7485013
0.31397444 -0.23998284 -0.74630767
0.36096025 -0.23790865 -0.74851966
0.37699959 -0.23206806 -0.74876577
0.40580657 -0.23340064 -0.74184871
0.44341877 -0.23197888 -0.74778056
0.49496076 -0.22980286 -0.74373907
0.55156857 -0.22918925 -0.74143606
0.59215569 -0.22655444 -0.74017566
0.18566388 -0.24238016 -0.73637372
0.1977285 -0.24162333 -0.73281801
0.21083529 -0.24220552 -0.73264492
0.25385833 -0.2401801 -0.73975623
0.26429796 -0.23781659 -0.73053086
0.32382935 -0.23736435 -0.73523813
0.33964136 -0.23951119 -0.73681372
0.3710365 -0.23566689 -0.7375508
0.41702926 -0.23212251 -0.73262572
0.46791399 -0.23066156 -0.73101771
0.45052737 -0.22839276 -0.73149151
0.50496781 -0.22802742 -0.73143429
1.0148485 -0.19275492 -0.73641545
1.0132244 -0.18124028 -0.73527831
0.19503784 -0.2451375 -0.72343457
0.2071536 -0.24472646 -0.72060263
0.22225599 -0.24078888 -0.72683114
0.23477395 -0.24071167 -0.72438139
0.30612335 -0.24084911 -0.72867382
0.29001319 -0.23798811 -0.72465098
0.37946996 -0.23250456 -0.72393984
0.39421293 -0.23367509 -0.72176796
0.40998799 -0.23547052 -0.72090709
0.43110022 -0.23265567 -0.72806674
0.48104665 -0.23059903 -0.72386765
0.5601759 -0.22692077 -0.72673118
0.60248512 -0.22515552 -0.72704178
0.1809485 -0.24281614 -0.71877569
0.23067424 -0.24323262 -0.71247494
0.2722553 -0.2405078 -0.71557879
0.2453482 -0.23863611 -0.71637481
0.31607839 -0.23850659 -0.71861619
0.32661659 -0.236821 -0.710109
0.34356287 -0.23277953 -0.71437538
0.3610661 -0.23620786 -0.71879923
0.3724027 -0.23520035 -0.71119016
0.43788072 -0.22898623 -0.71201736
0.49296328 -0.22995964 -0.71491152
0.5106734 -0.22427191 -0.71362513
0.53068721 -0.22762503 -0.71470916
3.654459 0.011684331 -0.71894127
0.17673044 -0.24365431 -0.70303369
0.1905382 -0.24604936 -0.70774245
0.20101064 -0.2438955 -0.70050991
0.21488194 -0.23918915 -0.70413613
0.25606188 -0.23689905 -0.70907509
0.38217443 -0.23324755 -0.70091665
0.41629007 -0.23140167 -0.70436555
0.43096146 -0.23259339 -0.70136261
0.46825731 -0.23159322 -0.70560259
0.45118174 -0.22923343 -0.70621115
0.5024277 -0.22815883 -0.70268273
0.54366773 -0.22757842 -0.70634532
0.56536674 -0.22328274 -0.70824981
0.75088966 -0.19983271 -0.70621496
1.002641 -0.18684301 -0.70145357
0.2121651 -0.24279624 -0.69577461
0.23686723 -0.23667793 -0.69307351
0.25020948 -0.2379944 -0.69382912
0.26436329 -0.23999983 -0.6960454
0.27844945 -0.23477508 -0.6974085
0.28985557 -0.23405483 -0.69213581
0.30276689 -0.23467539 -0.69006956
0.31983757 -0.2386398 -0.69620991
0.33396152 -0.23286246 -0.69553167
0.34579349 -0.23249137 -0.69007558
0.47593305 -0.22884887 -0.6914714
0.51869756 -0.2298747 -0.69936305
0.96009767 -0.1909641 -0.69807857
0.92042345 -0.18474187 -0.69517714
0.17131452 -0.24243602 -0.68282121
0.18399069 -0.2438294 -0.68490857
0.19570695 -0.2437931 -0.68316227
0.24571285 -0.24022524 -0.68211496
0.28780219 -0.23923802 -0.68752384
0.32695401 -0.23459886 -0.68177867
0.35663247 -0.23147559 -0.68273991
0.37347984 -0.23469885 -0.68585724
0.38878453 -0.22939779 -0.68561864
0.43556389 -0.22792123 -0.68305671
0.45113149 -0.22974612 -0.68114442
0.48786703 -0.22851826 -0.68335998
0.52478886 -0.22662871 -0.6830318
0.54728991 -0.22328019 -0.68670672
0.56676716 -0.22637518 -0.68595296
0.59110963 -0.22319986 -0.68993533
0.6345855 -0.22208236 -0.68950278
1.0109926 -0.18568057 -0.68105501
0.17977694 -0.24451368 -0.67021346
0.21823183 -0.24265762 -0.67633957
0.2174298 -0.2350473 -0.67401034
0.23001902 -0.236058 -0.67425823
0.25719765 -0.23984471 -0.6783098
0.2706022 -0.23448594 -0.67892152
0.2950685 -0.23510313 -0.67356032
0.30812675 -0.23610437 -0.67219919
0.33943078 -0.23490365 -0.67810911
0.3995153 -0.22841084 -0.67752033
0.41319528 -0.22933497 -0.67400509
0.46230707 -0.22910672 -0.67271686
0.5390926 -0.22748454 -0.67693758
0.57356858 -0.22379884 -0.67045397
0.60313261 -0.22289644 -0.67969143
0.77392888 -0.20807774 -0.67832887
0.80114692 -0.20302664 -0.67707545
0.85689539 -0.20192853 -0.67279869
0.85930175 -0.19276427 -0.67461199
0.16760361 -0.24343799 -0.66897184
0.18987539 -0.24266113 -0.66408813
0.20068537 -0.2419121 -0.6604436
0.20194454 -0.2369518 -0.66431898
0.22606674 -0.2383336 -0.66339946
0.23887962 -0.23974815 -0.66431379
0.27620971 -0.23559721 -0.66148674
0.31953204 -0.23574352 -0.66721225
0.33175153 -0.23607291 -0.66366655
0.34914926 -0.23321201 -0.66923982
0.39432517 -0.23237577 -0.66921437
0.40476355 -0.23138782 -0.66102135
0.37546009 -0.22783634 -0.66344309
0.4263579 -0.22994927 -0.66940826
0.47219709 -0.22785734 -0.66256529
0.49028426 -0.22338457 -0.6629957
0.51316547 -0.22878404 -0.66867816
0.55147791 -0.22747208 -0.6683647
0.88394493 -0.18588948 -0.66867393
0.16414143 -0.24458405 -0.6560508
0.17531861 -0.24457644 -0.65466547
0.21082836 -0.24043427 -0.65483838
0.22180043 -0.24006046 -0.65167785
0.24760558 -0.23686722 -0.65456855
0.26204669 -0.23316559 -0.65876603
0.29974535 -0.23592469 -0.65501475
0.31085065 -0.23557203 -0.65017402
0.34076789 -0.23401465 -0.65411943
0.37334663 -0.23352076 -0.65992564
0.35584715 -0.22952418 -0.65531653
0.41399345 -0.22975618 -0.65107721
0.43406099 -0.22739817 -0.65676516
0.44760075 -0.22834529 -0.65247536
0.48013365 -0.22568917 -0.65000355
0.49976358 -0.22970976 -0.65212816
0.51801664 -0.22517097 -0.65182018
0.53622025 -0.22818221 -0.6508128
0.58329082 -0.22265176 -0.65841377
0.59811485 -0.22378616 -0.65173632
0.77985483 -0.20594403 -0.65983343
0.86332327 -0.19529006 -0.65369141
0.89180779 -0.18463592 -0.65026146
1.0072876 -0.18197834 -0.65326959
0.18460706 -0.24195036 -0.64685619
0.23206855 -0.23895828 -0.64657038
0.25498047 -0.2329163 -0.64211905
0.26770356 -0.23434626 -0.64238161
0.27973461 -0.23506506 -0.64067668
0.28303614 -0.23138045 -0.64775681
0.29261711 -0.23650637 -0.64039975
0.32101092 -0.23452517 -0.64346635
0.33331504 -0.2352358 -0.64067417
0.35050535 -0.23264703 -0.64606422
0.36201516 -0.23265436 -0.64106697
0.38113672 -0.23084827 -0.64810842
0.42301518 -0.22813222 -0.64099014
0.45885521 -0.22803128 -0.64486003
0.55478704 -0.22337538 -0.64959496
0.78922504 -0.20498824 -0.64431494
2.9833057 -0.035849229 -0.64347726
0.15973057 -0.24398567 -0.63958925
0.18016753 -0.24209312 -0.63233513
0.20526585 -0.24008192 -0.63868362
0.22793926 -0.24085356 -0.63581318
0.19167893 -0.23670606 -0.63272458
0.21532147 -0.23896697 -0.63387704
0.2380532 -0.23346305 -0.63092566
0.2537531 -0.23823497 -0.63922757
0.26603976 -0.23934722 -0.63864464
0.3017717 -0.23472841 -0.63235557
0.34329036 -0.234202 -0.63356745
0.37297297 -0.23232673 -0.63504368
0.4032456 -0.23019856 -0.63514286
0.38761652 -0.22751541 -0.63461727
0.43405002 -0.2278184 -0.63382441
0.50067711 -0.22415948 -0.63115573
0.54371333 -0.22609046 -0.63729638
0.56545591 -0.22279634 -0.63928813
0.57993835 -0.22398087 -0.63291407
0.60679919 -0.22237392 -0.63861901
1.0113853 -0.19077989 -0.63087833
0.86855674 -0.18851443 -0.63398093
0.15628819 -0.24467278 -0.62674212
0.16542904 -0.24235302 -0.62017643
0.20182724 -0.24213001 -0.62869722
0.21234219 -0.24177235 -0.62569153
0.16654482 -0.23787127 -0.6240676
0.18814085 -0.23828261 -0.62183553
0.23375253 -0.23525293 -0.6202811
0.27367517 -0.23606703 -0.62768215
0.28550774 -0.23682415 -0.62582338
0.31250039 -0.23439012 -0.62746036
0.32542568 -0.23585011 -0.62644136
0.35506248 -0.23457591 -0.62949574
0.39567849 -0.2323775 -0.6239242
0.41469923 -0.23021893 -0.62911373
0.37975061 -0.22927019 -0.62250483
0.44668645 -0.22848934 -0.62871152
0.46143138 -0.22671008 -0.62606573
0.48161712 -0.22774543 -0.6297192
0.49314269 -0.22777402 -0.62217659
0.51725388 -0.22665243 -0.62899446
0.55547011 -0.22611281 -0.62857968
0.85891527 -0.19559431 -0.62722987
0.89363384 -0.18199804 -0.6279273
1.0465226 -0.18499631 -0.62671012
1.0096911 -0.17974563 -0.62986034
0.15238038 -0.24435005 -0.612158
0.18574692 -0.24124166 -0.6144678
0.19569565 -0.24049686 -0.61088979
0.20684411 -0.24131945 -0.61058569
0.23257339 -0.24030596 -0.61736262
0.17385772 -0.23925559 -0.61169666
0.24338037 -0.23724115 -0.61479092
0.25719559 -0.23717853 -0.61878031
0.26763004 -0.23683849 -0.61471832
0.27801225 -0.23650421 -0.61045533
0.2923013 -0.23318927 -0.61376888
0.33142105 -0.23194124 -0.61300921
0.36135054 -0.2311046 -0.61644393
0.40585613 -0.23173024 -0.61648446
0.4194316 -0.22624147 -0.61370385
0.4339813 -0.22828056 -0.61185122
0.5039466 -0.22749412 -0.6136862
0.5237416 -0.22421011 -0.61511546
0.77801222 -0.20695098 -0.61335593
0.78045201 -0.19867399 -0.61519444
0.86768562 -0.18515883 -0.61042506
0.90894836 -0.18276075 -0.61478674
0.16076554 -0.24120072 -0.60391283
0.21553883 -0.23300037 -0.60350895
0.25064236 -0.2369467 -0.60406148
0.26199085 -0.23776276 -0.60262507
0.30226877 -0.23249261 -0.60821748
0.31439957 -0.23363493 -0.60654968
0.36660281 -0.23387454 -0.60225898
0.41480544 -0.23040679 -0.60733646
0.33946559 -0.22983105 -0.60353816
0.36628643 -0.22694014 -0.60177183
0.46472165 -0.22594932 -0.60885501
0.48013642 -0.22827341 -0.60667634
0.51525652 -0.22754049 -0.60569185
0.53770512 -0.22548516 -0.60952908
0.55242401 -0.22329134 -0.60442209
0.59779215 -0.22170073 -0.60854077
0.82519352 -0.20498756 -0.60361767
0.79453039 -0.19937405 -0.60371047
0.85956806 -0.19255219 -0.60494965
0.93656319 -0.18652549 -0.60907602
1.0107857 -0.18790075 -0.60607737
1.6205008 -0.13896619 -0.60520494
0.14689724 -0.24402121 -0.59169459
0.22329888 -0.24232958 -0.59440738
0.16757651 -0.23606144 -0.59115177
0.17796713 -0.23650865 -0.59052408
0.21138695 -0.23729257 -0.59269297
0.22448251 -0.23750867 -0.59733695
0.26811141 -0.23360974 -0.5901556
0.28370863 -0.23205528 -0.59690481
0.32285491 -0.23185186 -0.59817225
0.33304432 -0.23154163 -0.59285134
0.3468003 -0.22736956 -0.59315866
0.37869325 -0.22803625 -0.59874254
0.3873595 -0.22668859 -0.59006852
0.40301144 -0.22990146 -0.59110343
0.41848564 -0.22601323 -0.59128779
0.43932348 -0.22498703 -0.5977689
0.45737535 -0.22904567 -0.59978306
0.48694807 -0.22604835 -0.59413159
0.52257818 -0.22569224 -0.59330744
0.77713591 -0.20309691 -0.59107262
0.88022864 -0.18534906 -0.59613591
0.1555644 -0.24181694 -0.5857743
0.19715655 -0.2412599 -0.5839693
0.23147726 -0.24000901 -0.58674896
0.16453043 -0.23739305 -0.5811885
0.18630491 -0.23416886 -0.58361709
0.19603314 -0.23382726 -0.58088279
0.23162742 -0.23404795 -0.58710271
0.24074116 -0.23293696 -0.58182305
0.26390389 -0.23581146 -0.5815289
0.28886762 -0.23374096 -0.58301365
0.35319901 -0.23094261 -0.58161896
0.38554543 -0.23221399 -0.58747774
0.29033607 -0.22873637 -0.58577538
0.3675243 -0.22712736 -0.58218384
0.4321638 -0.22778428 -0.58860493
0.46170974 -0.22543539 -0.58471626
0.49538484 -0.22480899 -0.58362216
0.52898502 -0.223536 -0.58015031
0.57559305 -0.21992187 -0.58710337
0.61331069 -0.21887526 -0.58233833
0.86130297 -0.19935824 -0.58384544
0.8703745 -0.19233513 -0.58973658
1.0087968 -0.18484268 -0.58100164
0.14144553 -0.24319194 -0.57134861
0.16243197 -0.24590826 -0.57432473
0.17265281 -0.24071589 -0.57416826
0.20625281 -0.24011752 -0.57931805
0.16228864 -0.23980616 -0.57385588
0.17163904 -0.23339011 -0.5710482
0.18172441 -0.23386553 -0.57031435
0.24975224 -0.23183157 -0.57637924
0.27255493 -0.23130077 -0.57501447
0.30811381 -0.23274985 -0.57263994
0.29757407 -0.22617313 -0.57619572
0.30875224 -0.22698799 -0.57374567
0.32233611 -0.22968274 -0.57502991
0.33576447 -0.22574097 -0.57549763
0.39235252 -0.22978275 -0.5764327
0.40248421 -0.22296639 -0.57005322
0.41808793 -0.22619559 -0.57058865
0.4737162 -0.22617339 -0.57891005
0.50813556 -0.22585778 -0.57781959
0.53846455 -0.22297582 -0.57028437
0.77845854 -0.20448706 -0.57089353
0.88509381 -0.18367961 -0.57691437
4.0343518 0.044562064 -0.57325399
0.14635229 -0.24443845 -0.56516659
0.1697191 -0.24220091 -0.56513917
0.17969456 -0.24272397 -0.56441927
0.1884651 -0.241561 -0.56008983
0.20218259 -0.24098325 -0.5687148
0.21338931 -0.24274066 -0.56988037
0.18526627 -0.23794213 -0.56564069
0.2121765 -0.23531942 -0.56687856
0.23499122 -0.23290876 -0.56890845
0.24222896 -0.23020035 -0.56024551
0.2576901 -0.23587143 -0.56878877
0.26687172 -0.23516858 -0.56386054
0.28133023 -0.23323976 -0.56883782
0.31928402 -0.23360386 -0.5699504
0.3541182 -0.23069264 -0.56230849
0.29248241 -0.22807585 -0.5670101
0.33214083 -0.22938769 -0.56969857
0.3418718 -0.2290999 -0.56417662
0.35535324 -0.22515666 -0.56413954
0.40003201 -0.22807631 -0.56679904
0.42618456 -0.22488052 -0.56126571
0.43288118 -0.22203933 -0.56953532
0.44878891 -0.22519551 -0.56931776
0.46483636 -0.22836053 -0.56869501
0.48063171 -0.22424996 -0.56723714
0.49244604 -0.22500612 -0.56099463
0.55050874 -0.22369456 -0.56287974
0.6601966 -0.21666603 -0.56293607
0.86349672 -0.19691168 -0.56341898
0.86189175 -0.18715148 -0.56241614
1.0158021 -0.18389551 -0.56123781
0.13771401 -0.24786887 -0.55742234
0.14591958 -0.24579692 -0.55213881
0.15576252 -0.24382108 -0.5525099
0.1651172 -0.24095681 -0.55097604
0.17484255 -0.24150355 -0.55032802
0.18522142 -0.24291576 -0.5511778
0.21952465 -0.23256014 -0.55859041
0.22467288 -0.23588279 -0.5579741
0.27381939 -0.23247817 -0.554712
0.28721133 -0.23577547 -0.55750084
0.30958405 -0.23197071 -0.55380696
0.32048017 -0.23286399 -0.55103767
0.28605881 -0.22864221 -0.55542165
0.36556092 -0.22524241 -0.55893695
0.37953869 -0.22790152 -0.55879599
0.39083761 -0.22873619 -0.55459762
0.40348819 -0.22386955 -0.55190182
0.41949013 -0.22755529 -0.55299872
0.43891725 -0.22637573 -0.55755317
0.50596333 -0.22307986 -0.55631065
0.52416873 -0.22342563 -0.55598855
0.5830875 -0.22149751 -0.55512524
0.60677397 -0.21953306 -0.55698323
0.7883234 -0.19977677 -0.55689454
0.19375111 -0.24174958 -0.54675001
0.19422542 -0.23659916 -0.54798561
0.20132875 -0.23375534 -0.54002947
0.21176535 -0.23514281 -0.54031062
0.22568679 -0.23749155 -0.54801035
0.2348574 -0.23129901 -0.54443717
0.24691959 -0.23696843 -0.5467059
0.28212452 -0.23727483 -0.54832399
0.32837957 -0.23142011 -0.54340035
0.24508885 -0.22919612 -0.5429523
0.2941013 -0.22717719 -0.54836953
0.31920719 -0.22566323 -0.54900044
0.32807392 -0.22500084 -0.54292971
0.35461658 -0.22712392 -0.54330683
0.37167975 -0.22903135 -0.54797906
0.44306335 -0.22297688 -0.543648
0.45690513 -0.2251903 -0.54088604
0.46466628 -0.22264202 -0.54950571
0.53527737 -0.22385184 -0.54817098
0.56872666 -0.22262333 -0.54219466
0.54929954 -0.21839437 -0.54292005
0.77534133 -0.2045604 -0.54813802
0.79666954 -0.19910136 -0.54187196
0.90216225 -0.18245482 -0.54336363
0.13086872 -0.24045491 -0.53187537
0.17352325 -0.242635 -0.53702986
0.1884279 -0.24032055 -0.53288257
0.15970202 -0.23815764 -0.5343098
0.20913222 -0.23771018 -0.53410733
0.25076005 -0.23128922 -0.53223962
0.26505005 -0.23023701 -0.53821933
0.29783326 -0.23428759 -0.53425032
0.33766931 -0.23115595 -0.53792202
0.25340673 -0.22808652 -0.53743398
0.28658128 -0.22671817 -0.53534448
0.29945141 -0.2296302 -0.53694338
0.33580747 -0.22358054 -0.53516173
0.36220953 -0.22879951 -0.53494442
0.37943536 -0.22765081 -0.53946632
0.3925606 -0.22667441 -0.53791511
0.40518725 -0.22529942 -0.53533614
0.4230662 -0.22372396 -0.53866267
0.46441406 -0.22391084 -0.53093404
0.47167945 -0.2210369 -0.5387252
0.48631018 -0.22354539 -0.53595924
0.49967617 -0.22537933 -0.53149599
0.54075968 -0.22168338 -0.53495646
0.50191081 -0.21953677 -0.53373063
0.81627458 -0.20182435 -0.53391135
0.85774845 -0.19245219 -0.53856397
1.0084528 -0.19017467 -0.53426194
0.8594439 -0.18371095 -0.53958273
0.91795915 -0.18373135 -0.53064948
1.0067064 -0.17952587 -0.53337204
0.15528959 -0.24214488 -0.52072978
0.13764596 -0.23657471 -0.52328527
0.14835753 -0.23983742 -0.52828932
0.1568038 -0.23908839 -0.52539003
0.19620165 -0.23576432 -0.5273394
0.20579548 -0.23930261 -0.52624649
0.21512911 -0.23397636 -0.52429742
0.22628272 -0.23351242 -0.52604866
0.23660907 -0.23771892 -0.52556622
0.26954752 -0.23156114 -0.52563447
0.28163302 -0.23419513 -0.52677387
0.30401817 -0.23158425 -0.52469295
0.31445321 -0.23254882 -0.52195567
0.33230314 -0.23322572 -0.52996635
0.25802934 -0.22934848 -0.52501529
0.2831991 -0.22967672 -0.52948636
0.30275795 -0.22457431 -0.52267617
0.33896309 -0.22503845 -0.52095133
0.35331163 -0.22869709 -0.52269751
0.37085506 -0.22816817 -0.52807987
0.39852759 -0.2275369 -0.52711213
0.40824786 -0.22768007 -0.52100289
0.41086781 -0.22286089 -0.52412522
0.43057618 -0.22241001 -0.52928317
0.47628838 -0.22509217 -0.52558136
0.51601851 -0.22165672 -0.5295729
0.52739429 -0.22245133 -0.52249306
0.54455936 -0.2188738 -0.52043432
0.77623081 -0.2016231 -0.5285989
0.86661255 -0.19205357 -0.52283901
0.87424409 -0.18482743 -0.52724504
0.94829112 -0.18855441 -0.52534157
0.12751621 -0.25031829 -0.51936364
0.12603684 -0.24185315 -0.51384258
0.14562236 -0.24062397 -0.51934296
0.1892515 -0.2405553 -0.5101372
0.12706581 -0.23850191 -0.51768273
0.13532268 -0.23774509 -0.51518303
0.17171401 -0.23492606 -0.51406652
0.19109154 -0.23747545 -0.51469141
0.21166646 -0.23551375 -0.5165202
0.22145067 -0.23655255 -0.51568633
0.25381914 -0.23674992 -0.517097
0.26319265 -0.2313319 -0.51416999
0.28822881 -0.23185964 -0.51826578
0.34983331 -0.2323378 -0.51791
0.23361193 -0.22877283 -0.51942116
0.24358144 -0.22976044 -0.51815081
0.2506111 -0.22779593 -0.51106358
0.31316561 -0.2255069 -0.51997292
0.357867 -0.22533065 -0.51084411
0.37711242 -0.22601435 -0.5181424
0.41629884 -0.22043118 -0.51285893
0.43529519 -0.22286034 -0.51688576
0.45205721 -0.22375131 -0.51768291
0.49953321 -0.2203826 -0.51365322
0.5601697 -0.22160909 -0.51647073
0.58189291 -0.21968903 -0.51719159
0.60459179 -0.21780434 -0.51790816
0.62978989 -0.21653098 -0.51975054
1.0075645 -0.17745814 -0.51114875
0.12282549 -0.24601889 -0.50185764
0.13294479 -0.24134609 -0.5068903
0.1495195 -0.24336465 -0.50297123
0.15102988 -0.24051772 -0.50761974
0.14030124 -0.23664927 -0.5019384
0.16522378 -0.23717099 -0.50895989
0.17831798 -0.23195942 -0.50654536
0.19600508 -0.23801376 -0.50318176
0.20529747 -0.23335242 -0.50221521
0.21747397 -0.23754592 -0.50715828
0.22734112 -0.23321345 -0.50656408
0.2455797 -0.23400579 -0.50160092
0.25578174 -0.23550743 -0.50080037
0.29152387 -0.23268291 -0.50469786
0.23725402 -0.22883636 -0.50573254
0.27506793 -0.22988737 -0.50572896
0.28980583 -0.22538428 -0.50194842
0.32770053 -0.22260974 -0.50486672
0.33721626 -0.22898029 -0.50054413
0.36780086 -0.22587973 -0.50622416
0.38257188 -0.22348627 -0.5074085
0.39194649 -0.22364563 -0.50157565
0.4136354 -0.22520983 -0.50979501
0.42187682 -0.22462161 -0.50198323
0.44164211 -0.22439492 -0.50651407
0.4598003 -0.22282325 -0.50850743
0.46870014 -0.22262143 -0.50051993
0.47753796 -0.22067972 -0.50935775
0.48579943 -0.22012924 -0.50039065
0.51268679 -0.22223611 -0.5087781
0.54494816 -0.22173411 -0.50323886
0.53169405 -0.21991789 -0.50885034
0.56278831 -0.21849446 -0.50116092
0.58811474 -0.21823753 -0.50456536
0.6130442 -0.21731542 -0.50666738
0.63980466 -0.21665427 -0.50920904
0.76520532 -0.19519199 -0.50199974
0.87694263 -0.18292558 -0.50791371
0.99612886 -0.18503942 -0.50557119
0.12892453 -0.24419564 -0.49287003
0.14691906 -0.24423712 -0.49496791
0.15724041 -0.24215037 -0.49920765
0.13733521 -0.23660214 -0.49223694
0.15536498 -0.23377018 -0.49376097
0.16533969 -0.2362621 -0.49655324
0.17419419 -0.23689239 -0.49580249
0.18474774 -0.23987493 -0.49898997
0.1932141 -0.23436446 -0.49660662
0.20077237 -0.2332076 -0.49205169
0.2209745 -0.23435339 -0.4935106
0.23594803 -0.23400104 -0.49316591
0.23054484 -0.22725013 -0.49256501
0.25423515 -0.2283105 -0.49801022
0.26174971 -0.22719643 -0.49233496
0.29884705 -0.22555126 -0.49792427
0.30794901 -0.22290018 -0.49385986
0.32015675 -0.22270516 -0.49409309
0.3432821 -0.22094023 -0.49148935
0.36021388 -0.22669715 -0.49651325
0.37149519 -0.22531512 -0.49372995
0.40125111 -0.22381377 -0.49554855
0.42935744 -0.22366796 -0.49334037
0.44919404 -0.22345872 -0.49752432
0.4754656 -0.22135422 -0.4904114
0.49939317 -0.22239025 -0.49638158
0.55241054 -0.22089024 -0.49245292
0.51466751 -0.21862732 -0.49351957
0.5724138 -0.21864602 -0.491851
0.59633678 -0.21774863 -0.49361414
0.77911037 -0.20497619 -0.49131346
0.85470617 -0.1952547 -0.4955878
0.85646427 -0.18671793 -0.49656233
1.0293324 -0.17998214 -0.49900338
0.1171376 -0.24441339 -0.48063016
0.12666854 -0.24759595 -0.48500249
0.1529927 -0.24314931 -0.48687139
0.1660167 -0.24166842 -0.48623517
0.18974732 -0.24062647 -0.48843938
0.13463722 -0.23687446 -0.48341221
0.15975052 -0.23295954 -0.48119712
0.17794779 -0.2357184 -0.48215953
0.19734655 -0.23427334 -0.48435715
0.20702031 -0.23325279 -0.48474032
0.22531122 -0.23244312 -0.48229346
0.23444805 -0.23883826 -0.4806653
0.24643975 -0.23162393 -0.48394698
0.2659539 -0.23427944 -0.48119414
0.28101006 -0.23479261 -0.48787227
0.29980326 -0.2305599 -0.48178327
0.2570551 -0.22824831 -0.48420367
0.26663795 -0.22932506 -0.48233262
0.2747063 -0.22726117 -0.48662472
0.28925583 -0.22314556 -0.48315507
0.29901251 -0.22418109 -0.48061097
0.31435436 -0.22684582 -0.48580638
0.32787028 -0.2277566 -0.48768049
0.33553159 -0.22408047 -0.48120403
0.35377145 -0.22813259 -0.4882673
0.37667444 -0.22587521 -0.4833751
0.38223118 -0.22348687 -0.48999739
0.39314252 -0.22484332 -0.48622066
0.40800941 -0.2224602 -0.48658189
0.42152643 -0.2253253 -0.48494267
0.43410724 -0.22122523 -0.48190153
0.46716189 -0.22344758 -0.48239264
0.50466025 -0.22045884 -0.48450902
0.44934884 -0.21850054 -0.48116866
0.51983994 -0.21673882 -0.48141262
0.76596493 -0.1925282 -0.48341486
1.0009037 -0.18390381 -0.48574692
0.8740865 -0.17973714 -0.48588628
0.12341253 -0.24609633 -0.47364742
0.13123173 -0.24338855 -0.47227335
0.14066331 -0.24363177 -0.47571468
0.1661209 -0.24082252 -0.47477084
0.20167245 -0.24007937 -0.47327182
0.11612691 -0.23706049 -0.4768582
0.13194844 -0.23700503 -0.47461763
0.14108217 -0.23916486 -0.47700381
0.18405233 -0.2381742 -0.47502282
0.19302145 -0.2393626 -0.47464284
0.21259359 -0.23543921 -0.47632718
0.22309275 -0.23537917 -0.47793949
0.23647593 -0.2337929 -0.47509199
0.24276631 -0.23332621 -0.4773199
0.25215483 -0.23445861 -0.47571614
0.28489968 -0.23062326 -0.47644719
0.25281894 -0.22960177 -0.47686642
0.28560981 -0.22561818 -0.47754073
0.32889408 -0.22775713 -0.47239578
0.35718399 -0.22734068 -0.47605705
0.38445151 -0.22527801 -0.47622278
0.42806768 -0.22399022 -0.47564736
0.44385338 -0.22178885 -0.47567317
0.49258766 -0.22099972 -0.4736388
0.53700536 -0.22067502 -0.47952643
0.56973654 -0.22056939 -0.47283173
0.478627 -0.21830501 -0.47701684
0.50897914 -0.21818739 -0.47197148
0.55235779 -0.21671881 -0.47560996
0.78046972 -0.20250703 -0.47310442
0.8095035 -0.20000538 -0.47053155
0.78561866 -0.19563492 -0.47607717
0.85340041 -0.19231205 -0.47488725
0.85773671 -0.18454355 -0.47719294
0.88641399 -0.18045668 -0.47208005
0.11296851 -0.24035315 -0.46507087
0.13809015 -0.24409422 -0.46779531
0.14407659 -0.24084942 -0.46097714
0.16375147 -0.2423958 -0.46859831
0.17182361 -0.24264993 -0.46700162
0.14564709 -0.23845515 -0.4655382
0.15315844 -0.23283163 -0.4630855
0.16906136 -0.23330446 -0.46016482
0.17578937 -0.23481561 -0.46599117
0.19330028 -0.23445876 -0.46516114
0.20880444 -0.23889334 -0.46855831
0.21846315 -0.23543243 -0.46885338
0.22384015 -0.23238844 -0.46071473
0.23628993 -0.23733187 -0.46563622
0.24836303 -0.23607923 -0.46914855
0.25572276 -0.2325415 -0.4641667
0.19590363 -0.22745474 -0.46090052
0.2684215 -0.22870159 -0.46772638
0.27636495 -0.22848539 -0.46330491
0.28547639 -0.22383113 -0.46054283
0.30130237 -0.22474653 -0.46716622
0.31365272 -0.22523466 -0.46811169
0.32319769 -0.22907244 -0.46483642
0.33562168 -0.22645485 -0.46503663
0.36055046 -0.22081086 -0.46415931
0.37218997 -0.2230608 -0.46211752
0.41691253 -0.22349708 -0.46409586
0.43639201 -0.22381271 -0.46821183
0.47847301 -0.22017732 -0.4609299
0.39173654 -0.21839412 -0.46850902
0.40178099 -0.21937799 -0.46376827
0.44552943 -0.21786691 -0.4615024
0.46543762 -0.21777593 -0.46471754
0.49884412 -0.21976258 -0.46316123
0.54405737 -0.21983343 -0.46888837
0.87511545 -0.18665537 -0.46632317
1.0071065 -0.18317938 -0.46669585
5.2511382 0.13683784 -0.46333709
0.1098984 -0.24855743 -0.45361307
0.13323428 -0.2451584 -0.45285049
0.18351927 -0.24219686 -0.45330057
0.10994197 -0.23856956 -0.4537757
0.14958006 -0.23710909 -0.45325398
0.15181638 -0.2357451 -0.45939824
0.16512918 -0.23764271 -0.45043233
0.17751919 -0.23946221 -0.45963171
0.18577543 -0.23748954 -0.458368
0.20435649 -0.23867682 -0.45943862
0.2119471 -0.23569259 -0.45606488
0.24192762 -0.2347704 -0.45800209
0.25899431 -0.23057711 -0.4526397
0.28150815 -0.23134094 -0.4546597
0.29515511 -0.2307528 -0.45838705
0.26063314 -0.22675638 -0.45526239
0.28375 -0.22783047 -0.45798337
0.29591253 -0.2258141 -0.45946875
0.30165809 -0.22385958 -0.45160249
0.31589013 -0.22892708 -0.45513895
0.32673383 -0.22541824 -0.4536607
0.33796912 -0.2278347 -0.45232868
0.34278515 -0.22567417 -0.45827597
0.36296889 -0.22261083 -0.45150986
0.37611622 -0.22309288 -0.45116088
0.39420739 -0.22363222 -0.45564657
0.4045226 -0.22194603 -0.45126569
0.46716359 -0.22054175 -0.45074686
0.48732337 -0.22038992 -0.4531464
0.34977728 -0.21906111 -0.45132032
0.38290697 -0.21870854 -0.4587028
0.50944805 -0.21417524 -0.45640314
0.52847791 -0.21927899 -0.45627239
0.54425859 -0.21592432 -0.45292619
0.57365417 -0.21842223 -0.45936111
0.59588873 -0.21721183 -0.45938882
0.61912656 -0.21602997 -0.459328
0.77385306 -0.19772036 -0.4507702
0.85330081 -0.19868161 -0.45520803
0.86032319 -0.19171594 -0.45878613
0.89503878 -0.18032268 -0.45626628
0.11656966 -0.2467556 -0.4497835
0.13824105 -0.24555372 -0.44402951
0.16493647 -0.24249479 -0.44995534
0.10715415 -0.23711655 -0.44337136
0.115126 -0.23607489 -0.44474888
0.12236544 -0.23584063 -0.44327301
0.13535909 -0.23636734 -0.4432714
0.14764196 -0.23888581 -0.44792911
0.15331574 -0.23087344 -0.44141227
0.17189862 -0.23641711 -0.44639048
0.18759239 -0.23211819 -0.44307703
0.19916327 -0.23731841 -0.44879097
0.21351671 -0.23097478 -0.44129917
0.22487044 -0.23528014 -0.44503492
0.23177421 -0.23444909 -0.44041586
0.24486974 -0.23496617 -0.4461042
0.25546846 -0.23248512 -0.44699717
0.26763782 -0.23129998 -0.44986627
0.21701691 -0.22985929 -0.44788209
0.24420163 -0.22892952 -0.44499227
0.26350537 -0.22200808 -0.44350284
0.2733016 -0.2292598 -0.44249296
0.30645484 -0.22680488 -0.44261789
0.32806507 -0.22593585 -0.44009817
0.34271646 -0.22253245 -0.44290555
0.38476712 -0.22641988 -0.44552311
0.44797763 -0.22080819 -0.44843581
0.40917787 -0.21979085 -0.44099766
0.41722381 -0.21863884 -0.44904363
0.42444184 -0.21808836 -0.44113836
0.43197915 -0.21637394 -0.44841704
0.44957986 -0.21545325 -0.44992992
0.49548554 -0.21704945 -0.44468719
0.51077187 -0.21731947 -0.44193435
0.53143764 -0.21668884 -0.44290933
0.55534923 -0.21715631 -0.44556731
0.57501018 -0.21528462 -0.44421971
0.62188101 -0.2136813 -0.4446277
0.7686429 -0.20436351 -0.44788215
0.86522073 -0.19066519 -0.44172302
0.86612469 -0.18203087 -0.44216394
0.90871489 -0.18149962 -0.44275853
0.10495969 -0.24420226 -0.43518156
0.11607527 -0.24264088 -0.43506089
0.12884186 -0.24159603 -0.43933204
0.14251141 -0.24244033 -0.43383306
0.1734 -0.24294613 -0.43057233
0.19376697 -0.24064049 -0.43772689
0.11965817 -0.23764257 -0.43441796
0.1547778 -0.23479685 -0.43487078
0.16664934 -0.2336486 -0.43402398
0.18435994 -0.23538563 -0.43614501
0.1928574 -0.2342733 -0.435862
0.20497888 -0.23537599 -0.43657517
0.21124996 -0.23345678 -0.43703604
0.22716284 -0.23454511 -0.43242872
0.24564324 -0.23310272 -0.43127352
0.25101343 -0.23334219 -0.43986762
0.26537129 -0.23250206 -0.4307358
0.22761363 -0.22466823 -0.43320954
0.26064116 -0.22994483 -0.43909234
0.27955002 -0.22252186 -0.43610063
0.29156512 -0.22358671 -0.4377107
0.31295472 -0.2257356 -0.43602428
0.34745497 -0.22592086 -0.43366316
0.36386299 -0.22346009 -0.4375523
0.38748476 -0.22294731 -0.43362251
0.42991567 -0.22268723 -0.43159276
0.43691629 -0.22067358 -0.43812096
0.44532856 -0.22092445 -0.43108651
0.50687224 -0.22194578 -0.43877646
0.34783596 -0.21770902 -0.43410143
0.38774183 -0.21725646 -0.4338887
0.45176721 -0.21836418 -0.4368839
0.47163457 -0.21852292 -0.43950835
0.54159516 -0.21761154 -0.43520293
0.55572617 -0.21361096 -0.43020904
0.58066934 -0.2141609 -0.43239999
0.60828346 -0.21533421 -0.43545607
0.67770332 -0.21071258 -0.43038195
0.77439857 -0.19527505 -0.43288127
0.85290992 -0.19615388 -0.43571866
0.94094473 -0.18723424 -0.43723872
0.98502624 -0.18603267 -0.43570173
0.9841097 -0.17608769 -0.43531269
0.10554739 -0.24195066 -0.42384845
0.11454605 -0.24481241 -0.42571458
0.12457745 -0.24292344 -0.42620751
0.13486153 -0.24234578 -0.42321038
0.15534768 -0.24227323 -0.42622226
0.16236581 -0.24207754 -0.42393258
0.1244791 -0.23780589 -0.42590484
0.130318 -0.23547132 -0.42101929
0.14525624 -0.23408166 -0.42549455
0.15523066 -0.23707701 -0.42593262
0.16334346 -0.23609854 -0.4262358
0.17312534 -0.2324208 -0.42995542
0.18040277 -0.23747113 -0.42765883
0.19715041 -0.23536977 -0.42702478
0.20508678 -0.23619574 -0.42544478
0.21220487 -0.23601307 -0.4221856
0.25066027 -0.233246 -0.42372313
0.26019117 -0.23275504 -0.42305595
0.27169305 -0.23137762 -0.42487976
0.2111883 -0.22968358 -0.42035168
0.23333955 -0.22795467 -0.42691475
0.25463548 -0.2293397 -0.42984441
0.26628095 -0.22450629 -0.42455947
0.27320868 -0.22214806 -0.4270443
0.28414768 -0.22520266 -0.4275015
0.29599404 -0.22352107 -0.42873597
0.30267012 -0.22550486 -0.42286062
0.31426588 -0.22065897 -0.42305759
0.32530949 -0.22894117 -0.42216074
0.33313629 -0.22564948 -0.4266611
0.34941953 -0.22458275 -0.42151123
0.35210136 -0.2208771 -0.42448971
0.36962405 -0.2220358 -0.42928419
0.37522629 -0.22062087 -0.42092848
0.39396238 -0.22501163 -0.42578217
0.45642698 -0.22274843 -0.42628857
0.39533618 -0.21710302 -0.427156
0.40283269 -0.21695927 -0.42027062
0.4103196 -0.21565162 -0.42750064
0.45740306 -0.2170784 -0.42713708
0.47729743 -0.21726362 -0.42942554
0.48709667 -0.21826249 -0.42276251
0.50882626 -0.21889137 -0.42524341
0.51202726 -0.2139636 -0.42774433
0.52340454 -0.21563572 -0.42149529
0.54257315 -0.21434273 -0.42065281
0.57115531 -0.2169171 -0.42573822
0.58845836 -0.21404988 -0.42208388
0.76745337 -0.20131637 -0.4291884
0.78921258 -0.19724177 -0.42255345
0.88042992 -0.18349235 -0.42956904
0.098487958 -0.24502268 -0.41102871
0.11671822 -0.24339542 -0.41311061
0.12796637 -0.24303749 -0.41418964
0.13481584 -0.24058944 -0.41268966
0.14406934 -0.2424531 -0.4173246
0.17346589 -0.2374631 -0.41278267
0.18336962 -0.23161188 -0.41640916
0.19269095 -0.23484063 -0.4127762
0.20944373 -0.23776276 -0.41720438
0.23798861 -0.23024417 -0.41902354
0.24338235 -0.23349123 -0.41251612
0.25551578 -0.23335868 -0.4161244
0.26688379 -0.23210779 -0.4180114
0.27195284 -0.23001395 -0.41071674
0.29897827 -0.2305046 -0.4181352
0.21650635 -0.22750001 -0.41397116
0.22491482 -0.22642538 -0.41289365
0.27726382 -0.2270157 -0.41802669
0.28507346 -0.22476867 -0.41424385
0.30626985 -0.22500733 -0.41318333
0.33202603 -0.22834395 -0.41591421
0.34372726 -0.22600667 -0.4151893
0.39246985 -0.2220459 -0.41026336
0.40059766 -0.22142197 -0.41811231
0.44641355 -0.22323121 -0.41758403
0.3545635 -0.21728446 -0.41313374
0.41089678 -0.21723212 -0.41385737
0.43139485 -0.21896665 -0.41854057
0.45834595 -0.21950322 -0.41352335
0.4621495 -0.21542028 -0.41671491
0.51642984 -0.21877976 -0.41623947
0.53398472 -0.21696039 -0.41441292
0.55934489 -0.21843933 -0.41746843
0.57415283 -0.21476215 -0.41243467
0.64379466 -0.21273276 -0.41000757
0.76844788 -0.19908305 -0.41197333
0.84596992 -0.19194502 -0.41350007
0.85570973 -0.1858916 -0.41804183
0.98401111 -0.18386091 -0.41442358
0.97762167 -0.17279662 -0.41184211
0.095984794 -0.24323595 -0.40168679
0.10626122 -0.24436823 -0.40187714
0.11379603 -0.24174032 -0.40384254
0.13319109 -0.24236368 -0.40822569
0.14556867 -0.24034533 -0.40201837
0.15321925 -0.24691534 -0.40238467
0.09776897 -0.2383806 -0.40834543
0.10313119 -0.23760417 -0.40291798
0.11869687 -0.23553891 -0.40810892
0.14633942 -0.23443948 -0.40392607
0.15280506 -0.23397517 -0.40140888
0.16270217 -0.23410518 -0.40654463
0.17781055 -0.23127124 -0.40501136
0.18634279 -0.23605135 -0.40581363
0.20932315 -0.23404679 -0.40152949
0.22277345 -0.23160753 -0.4093298
0.23057991 -0.2324605 -0.40716717
0.24026977 -0.23535089 -0.40772319
0.25681034 -0.23268907 -0.40362501
0.17044143 -0.22812399 -0.40629667
0.19517161 -0.22866726 -0.40679705
0.21196078 -0.22720888 -0.40609798
0.2322153 -0.22915362 -0.40978435
0.24698038 -0.22983631 -0.40347016
0.27475956 -0.22598895 -0.40055683
0.28742635 -0.22840975 -0.40334946
0.298098 -0.22886914 -0.40309194
0.31187728 -0.22365105 -0.40615287
0.3218081 -0.22582431 -0.40415978
0.36988625 -0.22331221 -0.40170604
0.37591404 -0.22175123 -0.40773383
0.38501444 -0.22292279 -0.40306374
0.41453081 -0.22076543 -0.40335611
0.43298185 -0.22146869 -0.40590802
0.35000932 -0.21961999 -0.40824997
0.36428025 -0.2188673 -0.40959355
0.40129861 -0.21714911 -0.40490696
0.41344804 -0.21426111 -0.40238115
0.44398555 -0.21753742 -0.40147355
0.46297657 -0.21483329 -0.40323043
0.47758573 -0.21557985 -0.40083563
0.48440823 -0.21290368 -0.40616596
0.50278723 -0.21841928 -0.40595904
0.5216375 -0.21757959 -0.40544215
0.56609505 -0.21799448 -0.40699962
0.57924801 -0.21364464 -0.40067682
0.62730193 -0.21341722 -0.40009773
0.87054843 -0.17889258 -0.40589628
0.093709372 -0.24187393 -0.39319479
0.10515459 -0.24647634 -0.39814118
0.11657341 -0.24297087 -0.39106286
0.12856236 -0.24539268 -0.39550835
0.13415593 -0.24599786 -0.39149925
0.15827201 -0.24169762 -0.39659429
0.16690862 -0.24488278 -0.39872056
0.17511821 -0.24297789 -0.39412904
0.18409842 -0.24561368 -0.39353392
0.1133277 -0.23814501 -0.39158434
0.12496652 -0.23745486 -0.39523596
0.13656893 -0.23610863 -0.39778537
0.14494121 -0.23583794 -0.39145738
0.15827878 -0.23440936 -0.39660949
0.16304125 -0.23151614 -0.39042693
0.17524657 -0.23495331 -0.39975443
0.18871574 -0.23005551 -0.39465532
0.19505398 -0.23393264 -0.39873374
0.20310752 -0.23133133 -0.3907637
0.21693622 -0.23493758 -0.39961502
0.24331754 -0.23114319 -0.39803979
0.26841134 -0.23041831 -0.39213249
0.27938551 -0.23429523 -0.39305764
0.16431543 -0.2286773 -0.39315945
0.20614874 -0.22523332 -0.39603123
0.21367332 -0.22610171 -0.39418465
0.22166398 -0.22749221 -0.39289868
0.25160462 -0.22237054 -0.39619049
0.26090693 -0.22468567 -0.39551336
0.27577972 -0.22891325 -0.39508396
0.28951883 -0.22669046 -0.39249757
0.30617186 -0.2296946 -0.39935341
0.3258388 -0.22336398 -0.3953222
0.35186729 -0.22128832 -0.39673951
0.43878487 -0.22055186 -0.39710966
0.29909769 -0.21848607 -0.39092273
0.33996147 -0.21784225 -0.39747494
0.35276046 -0.21642007 -0.39766446
0.39571044 -0.21939218 -0.39969587
0.44970709 -0.21663909 -0.39248502
0.46568608 -0.21538891 -0.39153862
0.50857288 -0.2175775 -0.39595014
0.53174281 -0.21557182 -0.39814126
0.54487717 -0.21498434 -0.39268798
0.57188725 -0.2172108 -0.39589667
0.60035336 -0.21252678 -0.39898881
0.61084908 -0.21378545 -0.39021188
0.85538489 -0.19234508 -0.39914504
0.85632515 -0.18393178 -0.39956367
0.88345867 -0.18015407 -0.39258888
0.98988652 -0.18336515 -0.39610839
0.98345149 -0.17230941 -0.39363819
0.12529975 -0.24592541 -0.38654441
0.14403069 -0.24052648 -0.38073775
0.15422447 -0.24476397 -0.38750339
0.16230349 -0.24492748 -0.38884482
0.18526375 -0.24504961 -0.38816309
0.11912931 -0.23683381 -0.38852495
0.13438973 -0.23592746 -0.38597879
0.14554931 -0.23843272 -0.3843154
0.16948618 -0.2313519 -0.38794389
0.1822979 -0.23104165 -0.38258514
0.19381115 -0.23286359 -0.38900247
0.2072691 -0.23567528 -0.38352621
0.21758138 -0.23522654 -0.38636518
0.22708277 -0.23603569 -0.38741702
0.23442081 -0.23426844 -0.38484985
0.24110377 -0.23178086 -0.38119373
0.25108582 -0.23532143 -0.38199574
0.26601174 -0.23328552 -0.38894808
0.27584538 -0.23621517 -0.38852644
0.28503889 -0.23318058 -0.38696527
0.29633236 -0.23455921 -0.38762718
0.30891356 -0.2368785 -0.38932633
0.31758738 -0.23570797 -0.38615805
0.33361328 -0.23217827 -0.38419005
0.35275111 -0.23343162 -0.3845709
0.17583084 -0.22867763 -0.38518274
0.19550599 -0.22836956 -0.38474706
0.20703232 -0.22800502 -0.38313219
0.21913777 -0.22956544 -0.3888559
0.23678499 -0.22926512 -0.3883549
0.24375609 -0.22701547 -0.3849816
0.25299138 -0.22204967 -0.38461852
0.29290345 -0.22366038 -0.38354075
0.30685872 -0.22708049 -0.38696247
0.32048368 -0.22994065 -0.3893747
0.33827707 -0.22224037 -0.38266644
0.35391536 -0.22596076 -0.38573515
0.36307523 -0.22480941 -0.3818773
0.37534514 -0.2285876 -0.38070494
0.38940561 -0.22212887 -0.38073325
0.39507511 -0.22582552 -0.38583809
0.40871388 -0.22434473 -0.38481221
0.41108352 -0.22003165 -0.38687211
0.42869854 -0.22056435 -0.38864622
0.44514376 -0.2200523 -0.38878971
0.30643156 -0.2188278 -0.38647112
0.31753647 -0.21692464 -0.38610151
0.32606262 -0.21819256 -0.38257027
0.33117744 -0.2167349 -0.38805524
0.34227663 -0.2197971 -0.38680813
0.35247746 -0.21671237 -0.38429728
0.36594069 -0.21574777 -0.38464445
0.37956271 -0.21463296 -0.38463789
0.39804912 -0.21632588 -0.38851592
0.41342741 -0.2156834 -0.38890961
0.45310354 -0.21455517 -0.38170806
0.47490555 -0.21647373 -0.38494867
0.48457411 -0.21352875 -0.38532698
0.50810856 -0.21374997 -0.38159239
0.53763175 -0.21814467 -0.38780087
0.55590612 -0.21670106 -0.38551843
0.58492798 -0.21288063 -0.38934991
0.85654229 -0.19058038 -0.38116354
0.86553389 -0.18431894 -0.38498023
0.23980527 -0.23543926 -0.37933925
0.35567802 -0.23053378 -0.37473392
0.24852574 -0.22511472 -0.37847209
0.25689638 -0.22940728 -0.37685159
0.2787959 -0.22232418 -0.37925583
0.33366075 -0.22413291 -0.37788612
0.35764256 -0.22095641 -0.37663102
0.39241642 -0.22527899 -0.37064505
0.40458602 -0.22529876 -0.37477314
0.41070372 -0.22125158 -0.37354678
0.43122041 -0.22672784 -0.37751484
0.44279179 -0.22656284 -0.37365162
0.46474874 -0.22315265 -0.37729499
0.32095596 -0.21953842 -0.37709406
0.37026751 -0.21676454 -0.37596998
0.4130919 -0.21698588 -0.37555069
0.43652219 -0.21899092 -0.37524766
0.44632787 -0.21671623 -0.3764143
0.46800151 -0.21886206 -0.37974611
0.47683585 -0.21681398 -0.37289184
0.50251371 -0.21723995 -0.37767485
0.51577777 -0.21405433 -0.37306017
0.54153782 -0.21661168 -0.3761875
0.55816334 -0.21448724 -0.37262556
0.56874967 -0.21258633 -0.3792406
0.59282869 -0.2131543 -0.37938413
0.84484303 -0.19593753 -0.37619749
0.89438599 -0.18097827 -0.37821269
0.98901409 -0.18142681 -0.3753626
0.99265254 -0.17263246 -0.3766869
0.50344646 -0.21733403 -0.36474258
0.51991129 -0.21904041 -0.3621431
0.52177083 -0.21362086 -0.36335069
0.55232716 -0.21838869 -0.36897871
0.57245684 -0.21112533 -0.36714348
0.58486217 -0.21352838 -0.36017033
0.59569991 -0.2113876 -0.36642748
0.62081301 -0.21199869 -0.36593869
0.85286111 -0.18761869 -0.36143556
0.89964664 -0.18046547 -0.36146855
0.56016421 -0.21228503 -0.35975733
0.84199655 -0.19313318 -0.35704598
0.99329615 -0.18074882 -0.35666984
0.84927487 -0.17818226 -0.3599866
0.98861504 -0.17017725 -0.35505801
0.85330981 -0.18587931 -0.34368151
0.86693513 -0.1809292 -0.34891179
0.91194594 -0.18176508 -0.34731206
0.87443852 -0.18112105 -0.33366048
0.92128497 -0.18240272 -0.33187443
0.99632305 -0.17987588 -0.33763075
0.99347335 -0.16972867 -0.33670482
0.84425837 -0.19006647 -0.32267582
0.85707295 -0.18512042 -0.32733995
0.88997322 -0.18342678 -0.32109293
0.94429737 -0.17732154 -0.32072657
0.92946106 -0.18282837 -0.31590596
0.99153161 -0.17735267 -0.31629837
0.85034555 -0.19423345 -0.30744803
0.8568821 -0.18340673 -0.30969873
0.88593805 -0.18084311 -0.30176449
0.96538019 -0.18076485 -0.30830306
1.0117153 -0.18045619 -0.30250835
1.0342766 -0.17564923 -0.30897772
1.0828204 -0.17443721 -0.3017877
0.85913247 -0.18243174 -0.29305482
0.92806756 -0.18101753 -0.29689544
1.0544395 -0.1786292 -0.29418308
0.84433979 -0.18680091 -0.28824839
0.87315238 -0.18461479 -0.28010622
0.94318098 -0.18326893 -0.28285646
1.0156795 -0.18003842 -0.28379735
0.88245797 -0.17850594 -0.28295121
0.96381474 -0.17902669 -0.28877312
0.87029356 -0.19232349 -0.27923217
0.91694266 -0.18575312 -0.27533275
0.98075068 -0.18163052 -0.2744382
1.0487509 -0.17623954 -0.27236944
2.7545905 -0.051536929 -0.19575877
2.9958601 -0.033618692 -0.1593615
3.2215452 -0.011293971 -0.11406932
6.0729928 0.20404428 -0.10678985
3.246011 -0.011674817 -0.057444692
5.977951 0.20153815 0
3.3443632 0.015802884 0.059161436
3.0753105 -0.0088150818 0.16352531
3.0790112 -0.0089851944 0.21844447
3.4090912 0.014838922 0.36301371
6.4120069 0.27227631 1.2549542
6.3853679 0.27198017 1.3666079
1.6452732 -0.080287464 1.4597368
0.90588111 -0.12571289 1.487875
6.3831048 0.27261284 1.4837787
0.84327877 -0.12505467 1.4995729
0.87377214 -0.12524951 1.4927735
0.94352317 -0.12705508 1.4906384
0.8258698 -0.12721989 1.5292664
1.7801235 -0.066986695 1.5226264
1.6667721 -0.064484 1.5308793
0.80020916 -0.12799725 1.5447072
0.77291733 -0.12851959 1.557031
0.72161126 -0.13036712 1.5882841
0.75156587 -0.13026832 1.5813841
5.1899991 0.18514836 1.5998988
0.69717598 -0.14674324 1.6069925
6.3845353 0.27344161 1.6027299
0.69976121 -0.13221481 1.6127989
0.6480689 -0.14972262 1.64575
0.64672285 -0.13418362 1.6424185
0.67923129 -0.13450387 1.6415913
0.61819249 -0.14997414 1.6524576
0.59101343 -0.15099731 1.6660823
0.62225842 -0.13578591 1.6630497
0.56128806 -0.15135428 1.6726471
0.59796125 -0.13756742 1.6851711
0.57211685 -0.13909216 1.7040963
6.3721919 0.27383822 1.7190706
0.55565315 -0.14341034 1.7529221
6.0431128 0.27067751 2.582732
2.6678557 0.066060081 3.7083941
2.6234386 0.065726109 3.7835205
2.5503817 0.064965405 3.818403
3.0630648 0.11454794 3.9560046
4.081636 0.18984263 4.5665574
