# .PCD v0.7 - Point Cloud Data file format
VERSION 0.7
FIELDS x y z 
SIZE 4 4 4
TYPE F F F
COUNT 1 1 1
WIDTH 1531
HEIGHT 1
VIEWPOINT 0 0 0 1 0 0 0
POINTS 1531
DATA ascii
-1.2198174 -2.9896894 1.0682176
-1.1316493 -2.9896758 1.0615613
0.45624229 -2.981858 1.0658466
0.89780867 -2.9733496 1.0667727
1.0353172 -2.9701521 1.067137
1.8787007 -2.9720554 1.0631973
0.99406922 -2.9689338 1.0617591
1.4321977 -2.9689567 1.0670029
1.7346659 -2.9617145 1.0654691
1.9637129 -2.9658883 1.0652509
2.0546508 -2.9651272 1.0673264
-2.8432276 -3.0034978 1.0752863
-2.4552329 -2.996655 1.074837
-2.3491018 -2.9939964 1.0763863
-2.2473657 -2.9928105 1.0763868
-2.1498799 -2.9932938 1.074989
-2.0548794 -2.993257 1.0714725
-1.4086088 -2.9991975 1.072821
-1.3127198 -2.9943659 1.0725772
-1.2652493 -2.990473 1.0703417
-1.0719368 -2.9972715 1.0776528
-1.0288591 -2.9950831 1.0704055
-0.9674775 -2.9940207 1.0789937
-0.92703611 -2.9947352 1.0703266
-0.80900812 -2.9937112 1.0770984
-0.75170326 -2.9941041 1.0771391
-0.62019449 -2.9919164 1.0795026
-1.5756656 -2.9824796 1.077482
0.84213358 -2.9772451 1.0749199
0.93630719 -2.9706743 1.073316
1.1639515 -2.9752991 1.0781375
1.6100558 -2.9756975 1.0700912
1.0758842 -2.9674497 1.0702289
1.2021897 -2.9618793 1.0745702
1.2486328 -2.9675672 1.0766528
1.2919369 -2.9640994 1.0745093
1.3391089 -2.968137 1.0739313
1.3844347 -2.9665716 1.070328
1.554764 -2.9639356 1.0738653
1.6817722 -2.9579895 1.0747343
1.9026418 -2.954814 1.076468
-2.7212212 -2.9974873 1.0825874
-1.9099067 -2.9964607 1.0801852
-1.7686108 -2.9962704 1.0813043
-1.5309366 -2.9919741 1.0858402
-0.84821731 -2.9954548 1.0896838
-2.0890424 -2.9885926 1.0896374
-1.4792786 -2.9866707 1.0876347
-1.0070584 -2.9885027 1.0850102
0.40211195 -2.984971 1.0895485
0.42046392 -2.985177 1.082408
0.88177943 -2.9812264 1.0853359
1.0204405 -2.9805994 1.0890673
0.97653973 -2.9713087 1.0801216
0.91746169 -2.9694498 1.0893809
1.4604443 -2.9679658 1.0875252
1.637987 -2.9697325 1.0882299
1.7711219 -2.9678397 1.0873741
1.9974241 -2.9623382 1.0831754
2.9268994 -2.9655845 1.0806952
2.0872648 -2.9582856 1.0839441
-2.0059552 -3.0042422 1.0901027
-2.4952497 -2.9924076 1.0926536
-2.2901363 -2.9961545 1.0972474
-1.9441068 -2.9947846 1.0999305
-1.853159 -2.9923797 1.0903136
-1.7178688 -2.9990246 1.0910883
-1.3409607 -2.9974828 1.0962743
-1.2929244 -2.9940057 1.0943993
-1.202557 -2.9954929 1.0907125
-0.78968942 -2.9952605 1.0909315
-2.1862807 -2.9899967 1.093536
-1.6596301 -2.9871972 1.0942709
0.46891436 -2.9850252 1.0943084
0.86147821 -2.9754629 1.0988085
0.95811468 -2.9718878 1.0975356
1.3675927 -2.9705136 1.0961852
1.0582188 -2.9697902 1.0900387
1.1002259 -2.9694307 1.0937355
1.1865591 -2.9694633 1.0984935
1.2283567 -2.9636834 1.0973169
1.2757099 -2.9698467 1.0993731
1.3194978 -2.9660149 1.0968276
1.4126035 -2.9668388 1.0915548
1.5835447 -2.9609499 1.0932782
1.7152628 -2.9604669 1.0956615
1.8582284 -2.9691856 1.0953487
1.944671 -2.9654591 1.0997652
2.9684942 -2.955498 1.0958344
-2.4015548 -3.0074883 1.1008456
-2.7704034 -2.9988635 1.1024582
-1.5609521 -2.992213 1.1076478
-1.1369853 -2.9922757 1.1051655
-1.0947455 -2.9961085 1.1012719
-2.032836 -2.9896653 1.1050029
-1.6092349 -2.9882231 1.1009874
-1.508752 -2.9873528 1.1098446
1.0009463 -2.9784725 1.1062943
1.0405191 -2.9730351 1.1098593
1.1468345 -2.9793777 1.1001303
0.89808738 -2.9673281 1.1047709
1.4883627 -2.9657402 1.1078091
1.5362248 -2.9643805 1.1014872
2.0355294 -2.9646964 1.1034364
1.7989508 -2.9587047 1.1040955
2.844625 -2.9522731 1.1080757
-2.6574597 -3.0007973 1.1104418
-2.4363816 -2.9977295 1.1170856
-2.3307941 -2.9958553 1.1170776
-2.1287858 -2.9913087 1.1107693
-1.8878521 -2.9928141 1.1111593
-1.7476288 -2.99422 1.1104147
-1.4137175 -2.9925435 1.1164864
-1.2727463 -2.9936554 1.115875
-1.2271575 -2.9941478 1.1136529
-1.0316333 -2.9957471 1.1123033
-0.92721891 -2.9925275 1.1100484
-0.86768585 -2.9956765 1.1155194
-0.69192851 -2.9942639 1.1129898
-1.6907198 -2.9861934 1.1152412
-1.4600105 -2.9880016 1.1129805
-1.3162135 -2.9867346 1.1146443
0.41238096 -2.9816 1.1163003
0.8417592 -2.9724374 1.1128632
1.0844047 -2.9780002 1.1162245
1.4449942 -2.9752901 1.1159629
1.8941265 -2.9713809 1.1160744
1.1230133 -2.9666133 1.1157409
1.6178185 -2.9676499 1.116396
1.747476 -2.9600089 1.1157905
1.9759527 -2.9587197 1.1171049
3.6073456 -2.9574869 1.116033
-1.9862441 -3.0046289 1.1242585
-2.0709543 -2.9913313 1.1261322
-1.8324586 -2.9911616 1.1212009
-1.6421009 -2.9918115 1.1240005
-1.116969 -2.9928358 1.124285
-1.0099909 -2.9918804 1.1278998
-0.9694193 -2.9959528 1.1208369
-1.5875618 -2.9853241 1.1269809
0.39332411 -2.9804688 1.1229353
0.88086712 -2.973372 1.1227518
0.97942066 -2.9709625 1.1211984
1.0224687 -2.9762895 1.1293744
1.1691059 -2.9735255 1.1208988
1.2123708 -2.9712341 1.1217344
1.2586632 -2.97473 1.1236619
1.3032893 -2.9726069 1.122515
1.3510683 -2.9761987 1.1223929
2.0770836 -2.9712565 1.1255311
1.5677433 -2.9672985 1.1235566
1.8337463 -2.960629 1.1250026
1.6948888 -2.9584017 1.1251824
-2.7067342 -3.0035424 1.1313576
-2.2731574 -3.0003352 1.1378019
-2.5880935 -2.9969337 1.1339903
-2.4773004 -2.9949627 1.1361663
-2.3722098 -2.9957507 1.1372774
-2.1703959 -2.9957993 1.1328938
-1.7812973 -2.99558 1.1322793
-1.4903505 -2.9912231 1.1366847
-1.3448677 -2.9912181 1.139553
-1.2979025 -2.9915853 1.1385257
-1.2525523 -2.9941862 1.137334
-1.0526613 -2.991935 1.1356572
-0.94910872 -2.9965589 1.1370801
-1.5370597 -2.9850895 1.1311759
-1.4394743 -2.987638 1.137344
0.86096799 -2.9712677 1.1374493
0.92011797 -2.9721706 1.1310259
1.0649987 -2.9776695 1.1352088
1.5223624 -2.975013 1.1325114
1.6527663 -2.974689 1.1399686
1.1475371 -2.9678857 1.1394234
1.3718324 -2.9617746 1.1392074
1.4221178 -2.9680536 1.138785
1.4692637 -2.9662073 1.1342512
1.9250469 -2.9650419 1.1339264
3.6759555 -2.9601629 1.137009
1.778353 -2.9566576 1.1350846
-1.7317817 -3.0020707 1.1429378
-2.0139148 -2.9916387 1.1402344
-1.6737659 -2.9924414 1.1461725
-1.3943115 -2.9947572 1.1410409
-1.1395675 -2.9901135 1.1476864
-1.8652754 -2.9891796 1.1417071
0.90192401 -2.976387 1.148755
0.96287596 -2.9796398 1.141624
1.0010871 -2.9706039 1.1452614
1.1084864 -2.9795821 1.1403062
1.1927857 -2.970886 1.1429806
1.2350527 -2.9647548 1.1421573
1.2802887 -2.9644134 1.1424606
1.3287041 -2.9697702 1.1438406
1.8732411 -2.9693527 1.1487335
2.0195251 -2.9698312 1.1412574
-2.7530274 -3.002017 1.1510079
-2.6348531 -2.998209 1.154809
-2.5195842 -2.9931123 1.1558836
-1.9602534 -2.9962423 1.1546624
-1.8126827 -2.9923978 1.1526612
-1.6222304 -2.9931014 1.152169
-1.5737145 -2.9983716 1.1587973
-1.2316225 -2.9938564 1.1581044
-1.1851016 -2.9917405 1.1532819
-0.92795956 -2.9953835 1.1522737
-0.86628014 -2.9952953 1.1559266
-2.0479386 -2.9877782 1.1598779
-1.75418 -2.984545 1.1580456
-1.5166112 -2.9855678 1.1572018
0.47175199 -2.9707308 1.1528008
0.84160453 -2.9718907 1.1527855
0.94227082 -2.9766419 1.1574266
1.0452797 -2.9773481 1.1538361
1.5509543 -2.972815 1.1532847
1.4998645 -2.9695437 1.1573106
1.7333781 -2.9694963 1.1501776
1.9633118 -2.9694889 1.1560186
3.5262926 -2.9596901 1.1596676
-2.4191604 -3.0018122 1.1601766
-2.319279 -3.0076118 1.1613021
-2.149925 -2.9961741 1.1699064
-1.9037502 -2.9955935 1.1657488
-1.2795033 -2.9973121 1.1624663
-1.1201007 -2.9941986 1.1682501
-1.7037082 -2.9893296 1.1671383
-1.4677429 -2.9874718 1.1602353
-1.3701823 -2.9875529 1.1615586
0.45396787 -2.9825823 1.1653332
0.88181829 -2.9751964 1.1641364
0.98357981 -2.9774568 1.1654412
1.1310099 -2.9763827 1.1628298
1.2207752 -2.9784048 1.1690813
1.4513642 -2.9700961 1.1616347
2.0569541 -2.9708431 1.1620047
0.81999743 -2.9652717 1.1650354
1.170446 -2.9643962 1.1615462
1.2595724 -2.9623227 1.164235
1.3549573 -2.9683056 1.1658696
1.4017097 -2.9668283 1.1634016
1.8196546 -2.9699945 1.1608927
1.9022975 -2.9606173 1.1661924
1.3045155 -2.959888 1.1635207
-2.6875396 -3.0052946 1.1782665
-2.4573636 -2.9960439 1.1788096
-2.350487 -2.994592 1.1772034
-2.2508945 -2.9983997 1.1756957
-1.6009728 -2.9927347 1.1793379
-1.2106776 -2.9944069 1.1788578
-1.1655854 -2.9957991 1.1746287
-0.84533912 -2.9959347 1.1704075
-0.78454715 -2.9955416 1.1703565
-1.9901848 -2.987277 1.172647
-1.8431708 -2.9871745 1.1724603
-1.6489855 -2.9854362 1.1716077
0.86069047 -2.9713066 1.1781135
0.92225313 -2.9763491 1.1738594
1.0255576 -2.977927 1.1724387
1.0656615 -2.9709549 1.175693
1.582715 -2.976099 1.1763601
0.96110177 -2.9699996 1.1798685
1.1075115 -2.9672303 1.179232
1.5289066 -2.9690652 1.1791954
1.7097119 -2.9633367 1.1783789
1.7639798 -2.9660904 1.1700506
1.8483274 -2.9616728 1.1788095
2.08584 -2.9588141 1.1780164
-2.5762427 -3.0074985 1.1823039
-2.185807 -2.9923551 1.1897961
-1.790418 -2.9903891 1.1824886
-1.5510616 -2.9954951 1.1841174
-1.4998763 -2.9944906 1.1862565
-1.4512416 -2.9972999 1.1888108
-1.3990995 -2.9912055 1.1866959
-1.3511 -2.9923589 1.1864251
-1.258485 -2.9978526 1.1840452
-1.0976899 -2.9912624 1.1856666
-1.2995363 -2.9836528 1.1811473
0.41447788 -2.9840488 1.1810548
1.480746 -2.9717181 1.1845903
0.90007722 -2.9697735 1.1875068
1.1495293 -2.9623101 1.1813492
1.1958392 -2.9667006 1.1860682
1.241028 -2.9663348 1.1879672
1.4285108 -2.9646165 1.1851046
1.6595658 -2.9667413 1.1878514
1.9416826 -2.9674914 1.1898572
-2.7277312 -2.9973376 1.196161
-2.3887534 -2.9901795 1.1967012
-2.0291021 -2.991329 1.1960309
-1.8807036 -2.9928002 1.1968344
-1.7412505 -2.9989157 1.1934258
-1.6849201 -2.9939063 1.1977158
-1.189364 -2.9949672 1.1992521
-1.143351 -2.9937451 1.1931828
-1.0323569 -2.9916382 1.195843
-0.92702967 -2.9961033 1.1942713
0.46518934 -2.9811318 1.1931074
1.0064168 -2.9811883 1.191712
0.8406257 -2.9719379 1.1934278
1.0452459 -2.9706466 1.1943047
1.2923288 -2.9785948 1.1937289
1.3379729 -2.9757087 1.1926048
1.3848426 -2.9741852 1.1909463
1.7970982 -2.966346 1.191558
1.8820593 -2.9610276 1.1998876
1.6043693 -2.9597459 1.1920929
-2.5065894 -3.0030351 1.2028186
-2.1331592 -3.0027783 1.20908
-1.8258983 -2.9940801 1.2064203
-1.6349708 -2.9991679 1.2049571
-1.5783693 -2.9907112 1.2054524
-1.4763926 -2.990773 1.209915
-1.3296628 -2.9928896 1.2092407
-1.2822051 -2.9936714 1.2069514
-1.2367297 -2.9975369 1.2049099
-1.5233272 -2.9834037 1.2052467
-1.4241691 -2.9859374 1.2084887
0.88168091 -2.9766881 1.2059686
0.98372346 -2.9746575 1.206828
1.1775597 -2.9724989 1.2093796
1.2202874 -2.9660051 1.2096775
1.5584906 -2.969018 1.2014886
1.9703561 -2.9571297 1.2070861
-1.3815434 -3.0002522 1.2138363
-2.3257518 -2.9904263 1.215498
-2.225729 -2.9934123 1.2119253
-1.975723 -2.9980011 1.2107224
-1.1680238 -2.996407 1.2196413
-1.122103 -2.9951987 1.21278
-1.7652633 -2.9843209 1.2102398
1.0269475 -2.9774442 1.2153299
1.2710928 -2.9773934 1.2160031
1.3178477 -2.9770908 1.2167063
1.4121072 -2.9736426 1.213824
1.4623892 -2.9764473 1.2125388
1.6426519 -2.9738297 1.2199068
0.91916895 -2.9667456 1.2119431
1.0671262 -2.9692621 1.2186052
1.3596871 -2.9644091 1.2114806
1.8308467 -2.966949 1.2134745
2.0626483 -2.9552877 1.2133704
-2.6649878 -3.0041814 1.2236865
-2.5505934 -3.0027168 1.2242807
-1.6678224 -3.0026147 1.2297126
-2.438457 -2.9993672 1.2220263
-2.1681845 -2.9981432 1.2293019
-1.7159944 -2.9928184 1.2202926
-1.260041 -2.99336 1.2282213
-1.2153049 -2.9989634 1.2261147
-1.0553951 -2.9950843 1.2232989
-0.81969547 -2.9941049 1.2244802
0.45564303 -2.9791961 1.2290018
0.86061144 -2.9755218 1.2209357
0.96282744 -2.9743724 1.2239645
1.1132669 -2.9757435 1.2267436
1.5925976 -2.9768908 1.22719
1.1534615 -2.9643128 1.2268145
1.5356112 -2.9653029 1.2274557
1.7769381 -2.9675937 1.2237235
1.9220462 -2.9694991 1.2248741
-2.2664001 -2.9946618 1.2344697
-1.8031631 -2.9929068 1.2367774
-1.6105758 -2.9946718 1.230615
-1.4573855 -2.9971869 1.2373633
-1.408253 -2.9991784 1.2378858
-1.3561839 -2.993109 1.233972
-1.3078204 -2.9934301 1.2316879
-1.1463155 -2.9978566 1.2396708
-1.5548916 -2.9878645 1.2308069
-1.504487 -2.989774 1.233489
0.83980745 -2.976161 1.2362312
0.90198737 -2.9790027 1.2329162
1.0043925 -2.9727192 1.2314603
1.2023209 -2.9735184 1.2341408
1.2469755 -2.9701397 1.2354499
0.94025302 -2.9696412 1.2389295
1.2913703 -2.9646971 1.2349122
1.3888468 -2.9690368 1.2368287
1.4358158 -2.9650741 1.2337179
1.4865143 -2.9675019 1.232075
1.8627446 -2.9638612 1.2341893
-2.7086613 -3.0005159 1.2440517
-2.4746382 -2.9908519 1.2404616
-2.3729985 -2.9980319 1.2406195
-2.1070247 -2.9969594 1.2428515
-1.6926 -2.990828 1.248384
-1.1907692 -2.9934709 1.2440327
-1.9482599 -2.9896963 1.240706
-1.7462412 -2.9896617 1.2422682
0.88069761 -2.9787393 1.248582
1.0490515 -2.9777968 1.2407577
1.3449761 -2.9786444 1.2411327
1.6730061 -2.9724789 1.2419604
1.8132286 -2.9730456 1.2482018
1.613981 -2.9602032 1.2433037
1.9535239 -2.9638867 1.2445436
-2.208868 -3.0006931 1.2527906
-2.3095536 -2.9983482 1.2583901
-2.0451713 -2.9936619 1.2541184
-1.89293 -2.9927163 1.2516338
-1.586197 -2.9910157 1.2561576
-1.3824208 -2.9920766 1.2584383
-1.123922 -2.9984448 1.2589625
-1.0111504 -2.9971836 1.2587529
-1.6380466 -2.9890826 1.2520775
-1.3305231 -2.9859757 1.2536117
0.81899285 -2.9777074 1.2515135
0.98393035 -2.9750991 1.2500243
1.0272268 -2.9766283 1.2586732
1.1364075 -2.975378 1.2515588
1.2275373 -2.9750204 1.2593571
1.5174016 -2.9716625 1.257087
1.270157 -2.9652376 1.257836
1.3179859 -2.9663174 1.2597317
1.3644584 -2.9627359 1.2586747
1.4628099 -2.9629412 1.2563688
1.5653212 -2.9656947 1.2506678
1.753847 -2.964782 1.2538679
2.0479538 -2.9650776 1.2537115
2.9145567 -2.9632449 1.2547388
-2.5309246 -3.0059929 1.269141
-2.4211283 -3.0056748 1.2662104
-2.1487334 -3.0023999 1.2679126
-1.9904797 -3.0000412 1.2681239
-1.8364464 -2.9928746 1.2600827
-1.5381764 -2.9992046 1.2617579
-1.4867473 -2.9995096 1.262887
-1.0538174 -2.9926171 1.2663846
-1.7775246 -2.9876997 1.2649969
0.85684878 -2.9704294 1.2605687
0.96172202 -2.9730527 1.2664086
1.0693593 -2.9725165 1.2641191
1.4173701 -2.9715204 1.2616237
1.903821 -2.9747131 1.2608646
1.9934181 -2.970463 1.2694722
1.6470141 -2.964705 1.2681959
1.6992891 -2.9633291 1.2610562
-2.7646544 -3.0096748 1.2701617
-2.6472642 -3.0095549 1.2714304
-1.9334525 -3.0020301 1.2789665
-2.2435672 -2.9942882 1.2728242
-1.7247607 -2.9917572 1.2726188
-1.6714383 -2.9937637 1.2781659
-0.9875477 -2.9951704 1.2745814
-0.92093021 -2.9938698 1.2783628
-2.343662 -2.9894192 1.2772967
0.42477104 -2.98597 1.276173
1.0048188 -2.9745853 1.2758194
1.1152905 -2.9768317 1.2720971
1.1582848 -2.9711668 1.2750192
1.7896816 -2.9702544 1.2789595
1.8462803 -2.9723334 1.2704955
1.2031482 -2.9686522 1.2782668
1.5942718 -2.9639974 1.2732863
2.9581051 -2.9552782 1.273224
2.8290288 -2.9493947 1.277868
5.4595761 -2.93542 1.2705653
-2.0883446 -3.00281 1.2810961
-2.4546416 -2.9941635 1.2840298
-2.1824179 -2.9957294 1.2881523
-1.8698655 -2.9923627 1.283483
-1.6203038 -2.998637 1.2837766
-1.514167 -2.9972131 1.2867227
-1.4087474 -2.9906476 1.2829883
-1.3600931 -2.9934654 1.2821671
-1.145151 -2.993772 1.2833836
-1.0315421 -2.9949811 1.2848532
-2.0189016 -2.9886057 1.2865813
-1.5622531 -2.989028 1.2819605
1.050181 -2.9801443 1.286029
0.93953681 -2.9719019 1.2827461
1.2981877 -2.971144 1.284905
1.3466306 -2.9717929 1.2864432
1.4484644 -2.9786325 1.2886536
1.5467417 -2.9720206 1.2808462
1.9360068 -2.9706557 1.2817662
1.3936821 -2.9678006 1.2849879
1.4911361 -2.9629364 1.2801372
1.7344962 -2.9693086 1.2866356
1.8719752 -2.9591739 1.2878269
-2.6880953 -3.0029941 1.291345
-2.5729129 -3.0028503 1.290535
-2.2862911 -2.9979804 1.2974908
-1.9630233 -2.9933827 1.2989123
-1.8175745 -2.9997616 1.2940948
-1.2416869 -2.9993966 1.2986352
-1.0774951 -2.9979074 1.2956241
-0.96508652 -2.9975593 1.2919219
0.45642686 -2.9819517 1.2963086
0.8791045 -2.9822271 1.2923532
0.98474413 -2.9804978 1.2958755
0.8138631 -2.9726264 1.2909794
1.092867 -2.9756708 1.2911617
1.1354421 -2.969135 1.2944777
1.6264418 -2.9676554 1.2984204
1.6802319 -2.9687111 1.2932273
2.0288055 -2.9694009 1.2915847
5.5624852 -2.9279673 1.2943237
-2.1264131 -3.0035818 1.304884
-2.3930254 -2.9993615 1.3046591
-2.2178354 -2.9908848 1.3094333
-1.7013574 -2.991421 1.3015413
-1.6479474 -2.9934335 1.3061621
-1.5928189 -2.9908953 1.3076082
-1.5408251 -2.9928544 1.3098962
-1.3883116 -2.9970918 1.3094172
-1.3369635 -2.9940159 1.3051437
-1.2870491 -2.9922023 1.300408
-1.1216644 -2.9935033 1.3022755
-1.0086341 -2.9964786 1.302564
0.43460408 -2.9836056 1.3047303
0.85477448 -2.9748554 1.304562
0.91980517 -2.9796293 1.3024089
1.0275778 -2.9789927 1.3039244
1.1825851 -2.9726861 1.3010782
1.2293968 -2.9732413 1.3054479
1.5233781 -2.9700186 1.3071915
1.5757672 -2.9711187 1.3043505
1.8252397 -2.974386 1.3038576
1.0679547 -2.9683964 1.3072109
1.2750183 -2.9691229 1.3068382
1.3715693 -2.9683313 1.3096989
1.4703054 -2.9659626 1.3076396
1.9698263 -2.9685209 1.3037289
2.8945096 -2.9656234 1.3070219
-2.50442 -3.0019674 1.3104975
-1.909899 -3.0016813 1.3115147
-2.6156621 -2.9998345 1.3123168
-2.3246493 -2.9950485 1.3196369
-2.0573351 -2.9915748 1.3115402
-1.4893241 -2.9943979 1.3108826
0.41276115 -2.9861774 1.3131458
0.89545155 -2.9731727 1.3156991
1.4254704 -2.9774659 1.3136102
1.1132611 -2.9697232 1.3146223
1.7113113 -2.9681478 1.3166473
1.9122556 -2.9687092 1.3149964
2.0653956 -2.9693925 1.3144487
-1.794251 -3.0002286 1.3249835
-2.1613801 -2.9992039 1.3267338
-1.7364659 -2.9975443 1.3289711
-1.0991081 -2.9967074 1.3223139
-1.6738383 -2.9845829 1.3271281
1.0058626 -2.981365 1.3229059
0.936845 -2.9711568 1.3258623
1.1599379 -2.9723992 1.321683
1.2069913 -2.9738109 1.3272506
1.0458847 -2.969877 1.3265318
1.5489737 -2.9633279 1.3286687
1.6565228 -2.9667318 1.3219222
1.8501464 -2.9604173 1.3212974
2.0053275 -2.9682579 1.3267835
-2.5484257 -3.0017619 1.3338958
-2.2651551 -3.0013976 1.3378658
-1.5209545 -3.0008361 1.3393626
-2.6585591 -2.9962118 1.334174
-1.6230884 -2.9914756 1.3330073
-1.4119771 -2.9901986 1.3322707
-1.191757 -2.9937065 1.3369976
-1.1464051 -2.9988394 1.3317604
-2.0927639 -2.9893432 1.334548
-1.9365901 -2.9890995 1.330204
-1.5683955 -2.9897571 1.3338628
-1.4632717 -2.9899251 1.333833
0.81123006 -2.9806275 1.3364017
1.0916904 -2.9729311 1.335498
1.2561498 -2.9782548 1.3331515
1.301985 -2.9728842 1.3338048
1.4012812 -2.974623 1.3374059
1.4510133 -2.9731925 1.3366091
1.5025036 -2.9738643 1.3356291
0.97835863 -2.9670482 1.3342643
1.3486574 -2.968024 1.333643
1.7964008 -2.9643919 1.3316119
-2.3631363 -2.9915736 1.3418573
-2.1964436 -2.9943368 1.3486439
-2.036835 -2.9966712 1.3486989
-1.2421991 -2.9993196 1.3461603
-1.1211089 -2.9959989 1.3494827
0.39950088 -2.9851658 1.3497422
0.85027528 -2.9744749 1.3470492
0.91662174 -2.9797428 1.3459333
1.0249755 -2.9757392 1.3473693
1.1852371 -2.976975 1.3497806
1.7453265 -2.9719865 1.3422796
1.887459 -2.9659805 1.347424
-1.8288004 -3.0028696 1.3510183
-1.7143514 -3.0012693 1.3599349
-2.5877106 -2.9951618 1.3547839
-2.2985997 -2.9924512 1.3579614
-1.7666311 -2.994276 1.3525387
-1.391046 -2.9974582 1.3592262
-1.3376911 -2.9914553 1.3528494
-1.1683111 -2.9960179 1.3578669
-0.86881191 -2.9957693 1.3522276
-1.9714054 -2.9887013 1.354582
0.95807487 -2.9755888 1.3550826
1.069438 -2.9752781 1.3556174
1.2318517 -2.9753957 1.3539101
1.2772492 -2.9691811 1.3550006
1.3245981 -2.9660304 1.3564179
1.374784 -2.9675729 1.3588731
1.4220159 -2.961143 1.3567412
1.5281643 -2.9679832 1.3579355
1.5793682 -2.9653475 1.3541727
2.8702629 -2.9645724 1.3574433
1.8257947 -2.9584775 1.3529679
1.975585 -2.9585173 1.3577126
-2.711678 -3.0032923 1.3612394
-1.921595 -3.0037398 1.3696702
-1.5498343 -3.0009911 1.3653662
-2.4052567 -2.991976 1.3661757
-2.1358628 -2.9973278 1.3625368
-1.6570449 -2.9981081 1.3615003
-1.4951862 -2.9980505 1.3635938
-1.4408227 -2.9938014 1.3601267
-1.0970886 -2.9974751 1.3687488
0.82900798 -2.9813464 1.3648523
0.45460081 -2.9797902 1.3628049
1.002507 -2.9781117 1.3663104
1.1145937 -2.9744506 1.3627931
1.4782495 -2.9718831 1.3611327
1.7771493 -2.9712899 1.3662597
1.1587534 -2.9689469 1.3669553
2.0692916 -2.9553916 1.3683225
-2.5249913 -3.002862 1.377809
-2.2410567 -3.0018079 1.3765213
-1.8610913 -3.001018 1.3753512
-1.2648053 -2.9948766 1.3712672
-0.95522302 -2.9941003 1.3788697
0.87037742 -2.9810448 1.3780038
0.93628329 -2.9806223 1.3740129
1.0480456 -2.9811149 1.3768977
1.2065417 -2.9708319 1.3734418
1.255397 -2.9731615 1.3791593
1.6634585 -2.9658582 1.3753616
1.7184019 -2.9659927 1.3702675
3.7441041 -2.9601688 1.3781334
1.605513 -2.9587097 1.3761108
2.9144702 -2.9579628 1.3780576
-2.3452742 -3.0001469 1.3860062
-2.015125 -3.0010016 1.3851948
-1.6889614 -3.0001507 1.3882813
-1.4190521 -3.0001891 1.3872324
-2.6369886 -2.9994276 1.3809856
-2.1699772 -2.9917171 1.3846909
-1.6285819 -2.9912913 1.3861821
-1.364287 -2.9929864 1.3803903
-1.1926233 -2.9987998 1.3868411
-1.0727201 -2.99896 1.387609
-1.5715851 -2.9867721 1.3849508
0.91147006 -2.9768755 1.3886166
0.97799623 -2.9752445 1.3825021
1.0896683 -2.9707265 1.3805999
1.1362917 -2.9721289 1.3886517
1.3045919 -2.9742227 1.3833147
1.4037496 -2.9725864 1.3868449
1.5055786 -2.9701614 1.3857399
1.8700162 -2.9759569 1.3850967
1.3510246 -2.9672801 1.3828444
1.4535838 -2.9699121 1.3861789
1.5538615 -2.9617367 1.3802738
-2.4581935 -3.0049231 1.3967386
-1.472234 -3.0019073 1.3904603
-1.0003173 -2.9948857 1.3917392
0.44087878 -2.9772618 1.3996829
0.84536129 -2.9764097 1.391023
0.95324236 -2.9723854 1.3982331
1.0218076 -2.9739046 1.391923
1.1849991 -2.976563 1.3971474
1.8105364 -2.9725213 1.3914187
1.7502257 -2.966141 1.3951309
1.958657 -2.9691362 1.3972774
-2.6859031 -3.0022407 1.4069937
-2.2797649 -3.0003514 1.4007089
-2.1171923 -3.0061879 1.4029005
-1.8979199 -3.0057828 1.4031036
-1.8368117 -3.0022895 1.4073699
-2.5651264 -2.9976947 1.4000564
-2.3841293 -2.9967983 1.4093528
-1.7739789 -2.9942529 1.4082204
-1.3925365 -2.9974136 1.4096435
-1.3394232 -2.993556 1.4034446
-1.1673075 -2.998553 1.4065331
-0.97551203 -2.9963989 1.4089494
-1.7132841 -2.9880297 1.4086907
0.88696802 -2.974894 1.4035512
0.99711841 -2.971925 1.4088215
1.0669414 -2.9739394 1.4010831
1.2793704 -2.9714003 1.4048676
1.7001907 -2.9761896 1.4051067
1.9016718 -2.9722195 1.4080957
1.1102492 -2.9667037 1.4060152
1.3261205 -2.9653101 1.4056083
1.6410304 -2.9688001 1.4059135
-2.2162757 -3.0022299 1.4147575
-2.0529165 -3.0033391 1.4116566
-1.9861196 -2.9952407 1.41655
-1.5521028 -2.9979517 1.4166694
-1.4989663 -2.9995899 1.4162754
-1.4448248 -2.9974835 1.413005
-1.2150112 -2.996062 1.413522
-1.6577599 -2.9893346 1.4115461
0.92933798 -2.9730327 1.4151069
1.0414408 -2.9702322 1.4179773
1.1590414 -2.9720173 1.4157637
1.3825734 -2.9790075 1.4143932
1.4825083 -2.9723504 1.4131513
1.5372066 -2.9762673 1.4142179
2.0560703 -2.9712574 1.4120007
1.8416442 -2.9692841 1.4148601
1.9908961 -2.9644759 1.4198514
3.6551528 -2.9622264 1.4192083
-2.6139557 -3.0019419 1.427123
-2.3180535 -2.9975846 1.4246342
-2.1450527 -2.9921505 1.4216926
-1.9260068 -2.9958854 1.4242685
-1.3159735 -2.9983287 1.4280951
-1.266181 -2.9999394 1.4226127
0.86375475 -2.9781928 1.4204588
0.97414434 -2.9760458 1.4280841
1.087402 -2.9707646 1.4272715
1.25665 -2.9753716 1.4290926
1.7859755 -2.9722009 1.4230617
1.3023187 -2.9667232 1.4294767
1.7223961 -2.9601991 1.4230883
1.9288834 -2.9609835 1.4278662
-2.4213581 -2.9906948 1.431722
-2.2489986 -2.9932835 1.436008
-1.8058093 -2.993258 1.4339961
-1.7463326 -2.9907594 1.4364216
-1.6892802 -2.9909515 1.4389461
-1.4702711 -2.9935474 1.4384513
-1.1895553 -2.9966681 1.4340068
-1.0662214 -2.9924929 1.4311221
0.84023607 -2.981499 1.4369602
0.90805501 -2.9833083 1.4360223
1.0171623 -2.9708636 1.4364097
1.1337856 -2.9700518 1.4350802
1.6171871 -2.9701245 1.4353219
1.3499103 -2.961117 1.4302433
1.4038314 -2.9676673 1.4356511
1.5057744 -2.9627879 1.4348472
1.6718512 -2.969408 1.4317751
1.8713688 -2.9632304 1.4372592
-1.2405673 -3.0005367 1.4439785
-2.0203121 -2.9929924 1.4413924
-1.6341046 -2.9930911 1.4412435
-1.113144 -2.9912646 1.4412535
-2.1810296 -2.989079 1.4459592
1.1852344 -2.9800417 1.4469794
0.95054185 -2.9793041 1.446543
1.4613732 -2.9795232 1.4424913
1.7543356 -2.9607103 1.4489523
2.0289483 -2.9678442 1.4464959
-2.6648991 -3.0075653 1.4553612
-2.3673592 -3.0082679 1.4554437
-1.9636489 -3.0003707 1.4526339
-2.1194749 -2.9925954 1.4582613
-1.39047 -2.991981 1.4581857
-1.3395162 -2.9943931 1.4542419
-1.1640631 -2.9981308 1.4544724
-1.8954784 -2.9885375 1.4532052
0.81522578 -2.9804182 1.4509835
0.99544191 -2.9801631 1.4585001
1.3290228 -2.9700735 1.4581134
1.821461 -2.976902 1.450786
1.702804 -2.9695411 1.4577477
1.9647361 -2.9626005 1.4539146
2.9408875 -2.9578238 1.4540933
3.5596337 -2.9577796 1.4550426
-2.4757872 -3.0050983 1.4644263
-2.2879314 -2.9920614 1.4612913
-2.0582633 -2.9955981 1.4689654
-1.7814124 -2.9961376 1.465857
-1.6633946 -2.9914718 1.4676163
-1.6073173 -2.9920037 1.4681578
-1.4978062 -2.9933088 1.4659864
-1.4451743 -2.9957559 1.4641515
-1.2118709 -2.9943957 1.4615643
0.8584528 -2.9837658 1.467278
0.92580253 -2.979959 1.463351
1.0402542 -2.9780505 1.4681929
1.1590871 -2.9772372 1.4663248
1.382568 -2.9757326 1.4640613
1.5382597 -2.9709196 1.4651403
1.4842986 -2.9699214 1.4646301
1.5885223 -2.9633176 1.4604228
1.6471134 -2.9699183 1.4613365
1.9046288 -2.9622333 1.4623225
2.0614071 -2.9622021 1.4692237
-2.5906985 -3.0051818 1.4732404
-2.225364 -2.9967129 1.4758632
-1.993879 -2.9926879 1.4754139
-1.5551819 -2.9985819 1.470562
-1.1382018 -2.9996021 1.4745063
-1.0612124 -2.9933877 1.4787065
0.41176647 -2.9838367 1.4792571
0.83096367 -2.9756963 1.4782425
0.89895457 -2.974529 1.4767902
1.0842319 -2.9712894 1.4747628
1.2559584 -2.975481 1.4787768
1.790197 -2.9670775 1.4779924
-2.4106355 -3.0101202 1.4824859
-1.9375253 -3.0008488 1.4860559
-2.1577096 -2.9932971 1.4850335
-1.3664801 -2.9975343 1.4841883
-1.4670548 -2.984858 1.4868095
1.1313564 -2.9710307 1.4835306
1.6780572 -2.970855 1.4882355
1.0119054 -2.9692121 1.4820126
1.1782166 -2.9678345 1.4899479
1.3032182 -2.9689751 1.4808121
1.3539832 -2.9687972 1.4848801
1.4061818 -2.9698563 1.4885142
1.5637426 -2.9646623 1.4889035
1.7297361 -2.9620085 1.4803463
1.9395242 -2.9630675 1.488618
2.0048742 -2.9698436 1.4830767
2.869175 -2.9627435 1.4823472
-2.5240633 -3.0107088 1.4934336
-2.341748 -3.0094271 1.4962401
-1.8770849 -3.0015481 1.4917139
-1.7559724 -2.9982345 1.4969208
-1.6977068 -2.998179 1.4985112
-1.6396124 -2.9968257 1.4982734
-1.5838737 -2.9982073 1.4982694
-1.5258602 -2.9934335 1.4940404
-1.2373363 -2.9992812 1.4930115
0.80712861 -2.9816277 1.4954565
0.94576567 -2.9831975 1.4940916
1.0622859 -2.9813497 1.4985168
0.44492429 -2.9734972 1.4983155
1.626242 -2.9785287 1.4943858
1.2264073 -2.9659576 1.4960473
1.5109278 -2.9673645 1.4903457
1.8787997 -2.9619286 1.4955839
-2.6411624 -3.0107806 1.5023758
-2.4471126 -3.0026071 1.5052793
-2.2666447 -2.9991829 1.5037075
-2.0344181 -2.9998956 1.5059623
-1.9673531 -2.993166 1.50936
-1.3368508 -2.9914904 1.503909
-1.2878451 -2.9980803 1.500322
0.91676033 -2.9726017 1.5052854
0.98794901 -2.9741673 1.5020014
1.1074841 -2.9759171 1.5056196
2.0411024 -2.9703186 1.5093981
2.9180338 -2.9608765 1.5072421
-1.3939611 -3.0010252 1.5147091
-2.195029 -2.9919152 1.5111649
-1.9044534 -2.9912348 1.5138766
-1.4450122 -2.9952576 1.516675
-1.8412101 -2.9871781 1.5160333
0.84943068 -2.9802272 1.5102282
1.0363113 -2.9811318 1.5168676
1.1565593 -2.9786258 1.515789
1.3317604 -2.9768813 1.5125114
1.3805544 -2.9704261 1.5133743
1.9801632 -2.971854 1.5192417
1.4860444 -2.9695532 1.5178641
1.593991 -2.966924 1.5171106
1.6505754 -2.9681599 1.5162957
1.7036875 -2.9617198 1.5105156
1.7655568 -2.9691637 1.5104035
-2.5696065 -3.0119996 1.5207987
-2.1395054 -3.0058286 1.5279913
-1.6165296 -3.004601 1.5298048
-2.3030887 -2.9943776 1.5282893
-1.7847039 -2.9927874 1.5218967
-1.7286124 -2.9979618 1.5263388
-1.6694497 -2.9963136 1.5260971
-1.5006114 -2.9972501 1.5215583
-1.2598211 -2.9961846 1.5207779
-1.1328348 -2.9987948 1.5228076
-1.0540354 -2.9913433 1.5253651
0.82195318 -2.9748182 1.5222007
1.0810517 -2.974843 1.5243458
1.2034175 -2.9733107 1.5210685
1.2529621 -2.9726765 1.5276942
1.5434855 -2.9757864 1.5217863
3.54052 -2.9636209 1.5204444
-2.0710585 -3.0003624 1.5335728
-2.2352321 -2.9936829 1.5393155
-1.4158291 -2.9917409 1.538996
-1.3130426 -2.9995489 1.5303513
-1.1816179 -2.9963257 1.5321213
-1.9992485 -2.988117 1.5342793
0.93784386 -2.9806545 1.539026
1.0097477 -2.9800649 1.5343193
0.866 -2.977412 1.5389271
1.3556291 -2.9734921 1.5390201
1.8582172 -2.9710264 1.533074
1.3017612 -2.968297 1.5314668
1.796416 -2.967061 1.5362974
-2.6105108 -3.0069366 1.5453764
-2.4188983 -3.0015786 1.5463423
-2.1678708 -2.9923713 1.5486
-1.938745 -2.9913399 1.5416454
-1.472075 -2.9953775 1.5456963
-1.1045257 -2.9969041 1.5405644
0.43019009 -2.985693 1.5435078
0.9820649 -2.976434 1.5499876
1.055818 -2.9780405 1.5447261
1.177629 -2.9747686 1.5427569
1.5711892 -2.973937 1.5485394
1.6265616 -2.9727099 1.5474832
1.223969 -2.9665732 1.5464474
1.4064751 -2.9699535 1.5411708
1.4574924 -2.9651985 1.5416478
1.6807117 -2.9678307 1.5434306
1.7380543 -2.9672937 1.5403901
1.9478049 -2.9630725 1.5494968
2.0138838 -2.9692538 1.5446521
-2.348681 -3.0007365 1.5590416
-1.8835155 -3.0018373 1.5515317
-1.8219533 -3.0009925 1.5542772
-1.7555258 -2.9901557 1.5505717
-1.6971784 -2.9913521 1.5519545
-1.5291207 -2.9985089 1.5510806
-1.1543916 -2.9977956 1.552478
-1.0771281 -2.9983947 1.5596013
-1.6376966 -2.9888678 1.5502456
0.84065986 -2.9815595 1.5559484
1.1045036 -2.9807281 1.5566245
0.91020036 -2.9770162 1.5534003
1.1482335 -2.9678013 1.559696
1.888803 -2.9663661 1.5578419
-2.5404861 -3.0102704 1.5636256
-2.0435059 -3.0008407 1.568857
-1.3390822 -3.0022106 1.5613841
-2.2767332 -2.9962971 1.5683748
-1.3915573 -2.9997015 1.5668417
-1.2538441 -2.9916501 1.5693868
0.95716059 -2.9822392 1.5699393
0.81289005 -2.9779198 1.5685564
1.0281726 -2.9752772 1.5616353
1.0729407 -2.9677987 1.5691799
1.4301474 -2.9641299 1.5665562
1.6500835 -2.9611738 1.5694177
1.7087069 -2.9630539 1.5686375
1.7656533 -2.9604788 1.5643817
2.0420127 -2.9577796 1.5658487
-2.4655187 -3.0065057 1.5766178
-2.2097418 -2.9971113 1.579021
-1.9776781 -2.9977984 1.5731727
-1.9154356 -2.9987843 1.5783157
-1.8494714 -2.9922445 1.5781983
-1.5536269 -2.9912422 1.5764574
-1.4446888 -2.9967706 1.5710479
0.43893802 -2.9825544 1.5740156
0.88463938 -2.9811394 1.5712115
0.99970537 -2.9708161 1.5771514
1.1997509 -2.9730587 1.5710716
1.3841071 -2.9795978 1.5706482
1.4897199 -2.9752691 1.5750204
1.6019816 -2.9772696 1.5782753
1.5382353 -2.962352 1.5700551
-2.3933973 -3.0049133 1.5892032
-1.7968104 -3.0062087 1.5877445
-1.1776462 -3.0005553 1.5844852
-2.1442857 -2.9988301 1.5887535
-1.7294729 -2.9938385 1.5820696
-1.6732401 -2.999033 1.5845696
-1.3608267 -2.9945648 1.5872982
-1.3096009 -2.9995203 1.582251
0.78653854 -2.9803483 1.5837641
0.85776335 -2.981823 1.5868039
1.2514848 -2.9761713 1.5804265
1.351866 -2.9686484 1.5891058
3.2146821 -2.9607296 1.5876319
2.9363067 -2.9546268 1.5823882
-2.5863361 -3.0115895 1.5922759
-2.3217926 -3.0026443 1.5999256
-2.0787828 -2.9992266 1.5964184
-1.4137998 -2.9916601 1.5924287
-0.94299132 -2.9957032 1.5943377
1.1757179 -2.9812295 1.596169
0.97324044 -2.9731839 1.5956725
1.0495906 -2.9786227 1.5933887
1.4605899 -2.9717681 1.5992018
1.9288585 -2.9759076 1.5902783
1.51238 -2.9653394 1.5984857
1.7422577 -2.9673035 1.5988468
1.8618215 -2.9668658 1.5911791
-2.5118058 -3.0099788 1.6066771
-2.016845 -3.0036106 1.6048894
-1.4737142 -3.0012758 1.6032839
-1.281177 -3.0001349 1.6043714
-1.9484421 -2.9967659 1.6060116
-1.6417719 -2.9940298 1.6099521
-1.5852678 -2.9971662 1.6092225
-1.1485451 -2.9995267 1.6034306
0.90260428 -2.9818716 1.6023276
0.82991123 -2.9799283 1.6005687
1.2253417 -2.9792874 1.6038263
1.2742715 -2.9736257 1.6085659
1.5713737 -2.9713895 1.6031935
1.8073889 -2.9767315 1.6006619
1.6273068 -2.9697006 1.6027316
1.6833764 -2.966758 1.6004639
2.0168936 -2.9612994 1.6034747
-2.2584023 -3.0100241 1.614375
-2.4343204 -3.0033429 1.6168063
-1.8267431 -3.0020905 1.614696
-2.1771107 -2.9916334 1.6134889
-1.3326766 -2.9959898 1.610747
-1.1987154 -2.9970498 1.6134845
0.80346614 -2.9840713 1.6169864
1.0216961 -2.9775815 1.6110141
1.1444676 -2.971797 1.6116303
1.3285239 -2.9783111 1.6177452
1.9551988 -2.9633265 1.6116081
3.1342382 -2.9642513 1.6174037
3.4194577 -2.9603593 1.6135371
1.8896105 -2.9578881 1.6144969
-1.4969311 -2.9931948 1.629069
-1.2506585 -2.9966373 1.6237414
1.0717199 -2.9832134 1.6261967
0.91855246 -2.9753828 1.6299508
0.99436384 -2.9790919 1.629477
1.1944616 -2.9715717 1.6210427
1.3787632 -2.9718504 1.6200476
1.4876233 -2.9715722 1.6281916
1.4291462 -2.964206 1.6206691
1.5975052 -2.9662578 1.629325
1.7114623 -2.9623179 1.6266543
1.8333229 -2.9658215 1.6232059
-2.5583301 -3.0127187 1.6368902
-2.3654225 -3.0060837 1.6304756
-2.0557299 -3.0080175 1.6363778
-1.5588392 -3.0025277 1.6387395
-1.9835567 -2.9972665 1.6354762
-1.8534498 -2.9920986 1.6387428
-1.3048114 -2.9990621 1.6346219
-1.1687762 -2.9952021 1.6323234
-1.0893977 -2.9974935 1.6397852
0.84604329 -2.9781022 1.6309086
1.117739 -2.9749525 1.6331586
1.2469587 -2.9750693 1.6314949
1.6579133 -2.9712656 1.632288
1.7801561 -2.9780347 1.6329707
1.2964123 -2.9690275 1.6359074
2.9164114 -2.9630311 1.6384096
-2.2952726 -3.0060256 1.6411629
-1.73791 -3.0049319 1.6470207
-1.6175207 -3.0033169 1.6426214
-1.3598328 -3.0010045 1.6442821
-2.4713335 -2.9961474 1.6417719
-2.214854 -2.9905849 1.6419306
-1.6747468 -2.9996574 1.6429269
-1.2225014 -2.9997411 1.6462231
1.1705089 -2.9822097 1.647473
0.96644014 -2.9797616 1.646999
1.3523469 -2.9757242 1.6461363
1.9971609 -2.9739549 1.6455884
1.4031324 -2.9688649 1.6480812
3.1861463 -2.9604373 1.6438522
-1.4156955 -3.0024612 1.6526883
-2.1518383 -2.9973135 1.6534956
-1.5233871 -2.9911273 1.6584512
-1.1400921 -2.9975073 1.6529495
0.86148739 -2.973346 1.6599547
1.0900141 -2.9764383 1.653319
1.2202603 -2.9790084 1.6552787
1.2686234 -2.9704664 1.6592243
1.459162 -2.9713421 1.6540051
1.8698115 -2.9715159 1.6549251
1.5111139 -2.9636767 1.6533822
1.5672914 -2.9628251 1.6553481
1.6279973 -2.9686425 1.659817
1.7423503 -2.9621303 1.6554579
1.8028917 -2.9624562 1.6534419
-2.4092767 -3.0088229 1.6611828
-2.0218406 -3.0017245 1.6676002
-1.6401314 -2.9907618 1.6660354
-1.9488152 -2.9894123 1.6645566
0.79180282 -2.9863589 1.6638821
1.1403141 -2.9778459 1.6653992
1.3232915 -2.9746919 1.6691006
1.6899911 -2.9746788 1.6632651
2.0261583 -2.9642444 1.66907
3.8736346 -2.9602308 1.6618433
-2.5271862 -3.0110304 1.6794449
-2.3378265 -3.0087159 1.67208
-1.7074749 -3.0039172 1.6756551
-1.5884569 -3.0046799 1.6705005
-2.2598281 -2.9984481 1.6758209
-1.8249724 -2.9941723 1.6711243
-1.7632478 -2.9946132 1.671489
-1.3834456 -2.9974041 1.6734415
0.9857114 -2.9809837 1.6790718
0.83379102 -2.9766006 1.6765023
1.0619414 -2.9779317 1.6729865
1.1904984 -2.9763238 1.6749861
1.3773614 -2.9751608 1.6759474
1.4264151 -2.9630311 1.6748648
3.2492313 -2.9660103 1.6759957
-1.4975756 -2.9997017 1.6888019
-1.4399102 -2.9983995 1.6815462
-1.2969046 -2.994101 1.6851119
1.1132618 -2.9826627 1.6877851
1.2445229 -2.9818029 1.6874763
1.9696265 -2.9759753 1.6816384
1.4845927 -2.9682753 1.6822488
1.5399592 -2.9657905 1.6843148
1.5963767 -2.9636493 1.6854668
1.655592 -2.9649851 1.6874118
1.7775079 -2.9684267 1.6882428
-2.3760955 -3.0049629 1.6998842
-2.1289296 -3.0074632 1.6956538
-2.0567806 -3.0002966 1.6969185
-1.7305923 -2.9905007 1.6987724
0.80647904 -2.9824193 1.6939728
0.8809371 -2.981812 1.6965344
0.95451277 -2.9740698 1.6922357
1.0329521 -2.9777555 1.691231
1.2942175 -2.9744875 1.6919833
1.7226849 -2.9783232 1.694837
1.1581917 -2.9678438 1.690931
-1.991429 -3.0014799 1.7016002
-1.6765505 -3.0029123 1.7037486
-1.9252269 -2.9998178 1.7033712
-1.8569151 -2.9929647 1.7009115
-1.797739 -2.9993427 1.7047967
-0.9694581 -2.9993517 1.7095908
0.84972262 -2.9748764 1.7077699
1.0031031 -2.9759092 1.7080165
1.0830849 -2.9799819 1.7055447
1.210849 -2.9708967 1.7029966
1.402094 -2.9733367 1.7054225
1.261313 -2.9661 1.7097574
1.9947019 -2.9609704 1.702679
3.1580048 -2.9614427 1.7002672
3.3022566 -2.9611337 1.7030133
2.8027871 -2.95767 1.7072611
-2.2260022 -2.9938066 1.7114388
0.9262954 -2.9772835 1.710439
1.4587128 -2.9752941 1.7120191
1.5149305 -2.9743559 1.7159424
1.5718499 -2.9729459 1.7185136
1.8114817 -2.9717953 1.7199239
1.8739555 -2.971751 1.717428
1.0500106 -2.9698036 1.7185302
1.315303 -2.9674261 1.7189715
1.6255904 -2.9639692 1.7157185
1.6881069 -2.9694824 1.7199267
1.7451401 -2.9635274 1.7165217
1.9346009 -2.9673605 1.7112457
-2.4964726 -3.0107684 1.7222379
-0.9387871 -3.000042 1.7258691
-2.1605074 -2.9989245 1.721225
-2.0898042 -2.9953296 1.7246284
-1.5835663 -2.9990025 1.7252871
-1.3787787 -2.9988165 1.7292957
-1.8236374 -2.988909 1.7298065
0.89799893 -2.9813473 1.7286229
0.82118517 -2.9781234 1.7241248
1.1822283 -2.9731841 1.7252589
1.3719786 -2.9723246 1.7292241
-2.4212928 -3.0091736 1.7327219
-1.9599384 -3.0004909 1.7346256
-1.8965801 -3.0033901 1.7378997
-1.7066832 -3.0027182 1.7349519
-1.6468447 -3.0050471 1.7331139
-1.4365398 -3.000905 1.7390074
-2.0243468 -2.9978106 1.7302152
-1.1530393 -2.9989815 1.7377846
1.104633 -2.9824107 1.7387257
1.4238517 -2.9646375 1.7313524
1.4821775 -2.968555 1.739012
3.2212057 -2.9676454 1.7338717
3.3659105 -2.964783 1.7354467
-2.3461597 -3.0061495 1.7408766
-2.2749548 -3.0067594 1.7496846
-1.4959563 -3.0040643 1.7483393
0.79301953 -2.9839203 1.7414197
0.94634175 -2.983979 1.7466036
0.86741126 -2.9786704 1.7424856
1.6001632 -2.972419 1.7488759
1.1500479 -2.9672384 1.7423228
1.2853719 -2.9672351 1.7416847
1.537712 -2.964798 1.7412436
1.7150174 -2.9633007 1.7468371
1.7748612 -2.9607615 1.7452232
1.9030257 -2.9648392 1.743603
1.9696431 -2.9682727 1.7417073
2.8588533 -2.9644856 1.7409492
-2.2064412 -3.009654 1.7584214
-1.3492013 -3.0026548 1.7545121
-1.206678 -3.0000896 1.751667
-2.1296446 -2.999424 1.7580585
-1.5514194 -2.9972267 1.750742
-1.4020262 -2.9943318 1.7590512
0.83780384 -2.9802165 1.7581981
1.3465433 -2.9826474 1.7589574
0.99072689 -2.9711499 1.7549604
1.2037741 -2.9714663 1.7560295
1.6596856 -2.9723904 1.751025
1.8461027 -2.9753456 1.7522086
3.1335785 -2.9669597 1.7587874
-2.4598641 -3.0041535 1.7607455
-2.067467 -3.0084729 1.767699
-1.6768668 -3.0056193 1.7653085
-1.6149396 -3.004061 1.7601305
-2.3818257 -2.9989421 1.7677528
-1.9245228 -2.9942293 1.7639567
-1.7985336 -2.999418 1.7667137
0.91665775 -2.9855077 1.7637151
1.2571133 -2.9719372 1.7666739
1.4549023 -2.9747427 1.7683572
3.2765055 -2.9652722 1.7632751
-1.3163497 -3.0000708 1.7753942
-1.5184526 -2.9946718 1.7751495
0.80724323 -2.9792387 1.7719225
0.8844524 -2.979495 1.7759309
1.0417165 -2.9754522 1.7722797
1.6243434 -2.9635689 1.774806
1.6852621 -2.964638 1.7775103
1.9340985 -2.9604914 1.7715809
-2.3160419 -3.0080662 1.7817856
-2.2425187 -3.0057976 1.7876364
-1.5821662 -3.0023015 1.7861121
-1.6380695 -2.9929869 1.7858189
-1.3708563 -2.9957538 1.7832493
0.77865601 -2.9867005 1.7899996
1.0910437 -2.9718523 1.7841971
1.3681586 -2.9755044 1.7866237
1.7518744 -2.9736578 1.7836943
1.8116155 -2.9689918 1.7807163
3.1847496 -2.9622951 1.7871519
2.8227668 -2.958874 1.7877069
-2.1681304 -3.0006459 1.790352
-2.099153 -3.0014091 1.7952431
-2.0323055 -3.0037913 1.7997851
-1.767764 -3.0015104 1.7982029
-1.4313266 -3.0021117 1.7965541
-1.28487 -3.001514 1.7981228
-1.8957404 -2.9992983 1.7994356
-1.8277318 -2.994596 1.7959121
-1.7022481 -2.997165 1.7925267
0.85473943 -2.9827139 1.7929213
0.93386388 -2.9841983 1.7960752
1.1433551 -2.9735878 1.7983527
1.2810825 -2.9733846 1.7996645
1.4225267 -2.9713557 1.7916458
2.034642 -2.9601684 1.7982099
3.8146288 -2.9614506 1.7978085
-2.4299927 -3.0067418 1.8040491
-1.9660614 -3.0056026 1.8026919
-1.5437583 -2.9903769 1.8053074
-1.488189 -2.99843 1.8027889
-1.3374833 -2.9931905 1.8044821
0.82287347 -2.9792295 1.8054417
0.97840744 -2.97018 1.8044517
1.5380903 -2.9712224 1.8033324
1.7771713 -2.963414 1.808991
1.903411 -2.9610219 1.8056494
-2.3534529 -3.0036998 1.8110141
-1.6110239 -3.0029008 1.819309
-1.2503211 -2.9965343 1.8163706
0.90306926 -2.984895 1.8124685
0.79195064 -2.9799442 1.8198599
1.3377461 -2.9769313 1.8111877
1.6605573 -2.9760878 1.8136406
1.7201495 -2.9726748 1.8136373
1.8448694 -2.9704728 1.8128293
1.9770769 -2.9736156 1.8102789
2.8740559 -2.9601936 1.8197558
-2.2846491 -3.0092745 1.821753
-2.2104843 -3.0062973 1.8258911
-2.0634723 -2.9967685 1.827848
-1.7955552 -2.995156 1.8269815
-1.7298479 -2.9921215 1.8221239
0.8722415 -2.9864316 1.8288058
1.1157975 -2.9832609 1.8238115
0.75865847 -2.9722776 1.8287101
0.94981605 -2.9783318 1.8260769
1.0308594 -2.9773195 1.824472
1.2501142 -2.9740241 1.8222101
1.3023645 -2.9679165 1.8289567
1.4469913 -2.9681761 1.821857
3.2456019 -2.965647 1.8208829
-2.141711 -3.0092006 1.8322384
-1.9299515 -3.0001512 1.8324729
-1.4585423 -3.0045607 1.8313885
-1.9956555 -2.9976337 1.830289
-1.5133733 -2.9948959 1.8338888
-1.5707486 -2.9887323 1.8374733
1.081805 -2.976558 1.8389983
1.1651516 -2.9746928 1.8319162
1.5093507 -2.9765475 1.8332461
1.5646048 -2.9686491 1.8338338
1.623331 -2.9657869 1.8363333
1.6835945 -2.9639852 1.8383451
3.5529661 -2.9647672 1.8307562
3.7135022 -2.9613736 1.8309227
2.7890601 -2.9566193 1.8357457
-2.3971078 -3.0065129 1.845121
-1.1313087 -3.0001197 1.8442413
-1.6366696 -2.996789 1.8488111
0.91849542 -2.9790285 1.842744
0.99816805 -2.9738822 1.8401008
1.2190939 -2.9754806 1.8446878
1.3596287 -2.9709959 1.8402268
1.414461 -2.9664106 1.845888
1.7463311 -2.9647403 1.840749
1.8111997 -2.9672213 1.8430195
1.8735596 -2.9638267 1.8405352
1.9427999 -2.9696524 1.8423802
3.1554601 -2.9645903 1.8443056
2.9172568 -2.9521549 1.8467507
-1.7040913 -3.0049572 1.8591436
-1.2751148 -3.0008664 1.8531288
-1.422775 -2.9988794 1.8521476
-1.1854975 -2.9994593 1.8590304
0.80592984 -2.9753468 1.8512576
1.1348923 -2.9786117 1.8543695
1.2739524 -2.9757905 1.8562545
3.3060601 -2.9673877 1.8543955
3.4562149 -2.9638963 1.8588282
-2.1808937 -3.0111597 1.8662993
-2.2514808 -3.0090547 1.8602914
-2.1088927 -3.009721 1.8687446
-1.8320624 -3.0026729 1.8647858
-1.4832095 -3.0009887 1.8629611
-1.5421959 -2.9978869 1.8694818
0.7755096 -2.9810705 1.8684089
0.88885599 -2.9863634 1.8628706
1.0516524 -2.9813306 1.8604865
1.1892859 -2.9809892 1.8690798
1.3289937 -2.9740233 1.8656086
1.5337546 -2.9708116 1.8623296
1.6535314 -2.9676507 1.8698741
-1.9696116 -3.0085783 1.8707722
-1.3914161 -3.0034511 1.8787141
-1.6047881 -2.999701 1.87804
1.1045177 -2.9833519 1.8767987
0.85431534 -2.977953 1.872869
1.3859466 -2.974174 1.8751519
1.5969863 -2.9764779 1.8710846
1.7175732 -2.9706721 1.8747827
1.9127923 -2.9731891 1.8784217
2.8523252 -2.9712174 1.8768303
1.779314 -2.9677815 1.8749039
1.8444815 -2.9689054 1.8763013
1.9746125 -2.9656785 1.8720459
-2.3646069 -3.0077088 1.8865014
-2.285701 -3.0018351 1.8890054
-1.7317437 -3.0001068 1.8898548
0.93805784 -2.9859827 1.8811375
1.4441388 -2.9746161 1.8838738
-1.930912 -3.0009542 1.8990922
-1.7991208 -3.0039973 1.8964099
-1.5094986 -3.0000558 1.8966097
-1.1194564 -3.0032172 1.8999844
-2.2082055 -2.9958973 1.8900411
0.98663396 -2.9802468 1.8953212
1.1577665 -2.9832697 1.8909757
1.0702356 -2.9783299 1.8926735
1.2985932 -2.9786558 1.8914452
1.5630628 -2.9739666 1.8972577
3.1218615 -2.9637165 1.8989804
-1.5743681 -3.0064802 1.9092112
-1.2645516 -3.0013409 1.9094986
0.79138553 -2.9851911 1.9058102
1.3561416 -2.9803588 1.9029745
1.1216213 -2.9742312 1.9052638
1.2096804 -2.9770927 1.9004848
1.6249851 -2.9751835 1.9032935
1.6825858 -2.966655 1.9021424
1.7477722 -2.969872 1.9071672
2.0114625 -2.9685452 1.906409
2.8982904 -2.9663541 1.9066806
-1.6361766 -3.0046105 1.9154474
-1.416052 -3.002243 1.9126226
-1.0848699 -3.0022931 1.9177991
1.4153647 -2.9831192 1.914191
1.1757261 -2.9745398 1.9197172
1.2660285 -2.9793031 1.9142711
1.8133771 -2.9717298 1.9101774
1.8788581 -2.9714928 1.9106779
1.9474704 -2.9743936 1.9119099
1.4667294 -2.9673367 1.9127885
-2.3329952 -3.0110371 1.9286901
-1.8288627 -3.0003338 1.9283042
-1.3230431 -3.0031617 1.9241854
-1.9610177 -2.9947038 1.9291979
-1.7616636 -2.9985387 1.9230841
0.83834612 -2.9806919 1.9240658
0.91901088 -2.9742739 1.9246972
1.0027093 -2.9731905 1.9255546
1.0879905 -2.9724808 1.9234259
1.3212638 -2.976238 1.9238222
1.5299186 -2.9737954 1.9242636
2.8189423 -2.9709883 1.9265643
1.587207 -2.9665213 1.9260316
-2.2550542 -3.0066247 1.9307661
-2.178498 -3.0021722 1.9314175
-1.3821782 -3.0036652 1.9370933
-2.1048439 -2.9998796 1.9321086
-1.8950597 -2.9985418 1.9300215
0.80358589 -2.9748194 1.9345524
1.2320948 -2.9775622 1.9349998
1.379836 -2.9782345 1.935587
1.4344914 -2.9695249 1.939573
1.9759903 -2.9653993 1.9394513
3.1828365 -2.9683201 1.9356178
3.7516768 -2.9633005 1.9320045
-1.6006831 -3.0029185 1.9417074
-1.6618969 -2.9982507 1.9460996
0.88744062 -2.9798977 1.9439063
0.96938086 -2.9730732 1.9426123
1.0552216 -2.9739735 1.9430279
1.1442411 -2.9792285 1.9429095
1.2884711 -2.9776788 1.9475436
1.7178377 -2.975774 1.9412936
1.7807761 -2.9730542 1.9425595
1.8462416 -2.9728019 1.9442095
1.9086741 -2.9660263 1.9404939
-1.7289709 -3.0021458 1.9549916
-1.1958237 -3.0026729 1.9516122
0.77212125 -2.9821379 1.9527904
1.200071 -2.9814191 1.9586773
0.85339147 -2.9781551 1.9578582
1.555554 -2.9702137 1.9559209
1.6146915 -2.9647763 1.9587864
2.8662519 -2.9680996 1.958475
-2.2958064 -3.0080116 1.9661914
-2.2152901 -3.0000124 1.9645454
-2.0707626 -3.0011454 1.9684527
-1.7965732 -3.0046577 1.9618552
-1.2534559 -3.003691 1.9677866
-1.9279023 -2.9974756 1.964031
0.93806618 -2.980289 1.9637665
1.1111289 -2.9807093 1.963503
1.347893 -2.9820261 1.9618526
1.0215611 -2.9738545 1.9610097
1.4014158 -2.9709389 1.9652891
1.4573703 -2.963376 1.9699342
3.2387486 -2.9669282 1.9692131
3.8208685 -2.9625773 1.9672594
-1.6278955 -3.0003777 1.975312
0.82093024 -2.9829712 1.9754131
0.90411133 -2.9801838 1.9796569
1.0753534 -2.9757659 1.9793468
1.1654408 -2.9796927 1.9781917
1.2552681 -2.9791269 1.9706836
1.7471769 -2.9736333 1.973878
1.9466861 -2.9725852 1.978506
2.0148473 -2.9712992 1.976975
1.3078952 -2.9684892 1.976341
1.8080751 -2.9658818 1.9718339
3.3892875 -2.9640491 1.9793061
-1.4655994 -2.9983182 1.9808187
0.99107689 -2.9842596 1.9851933
0.78597808 -2.9796009 1.9870872
1.5260997 -2.9793162 1.9887791
1.8834392 -2.9799633 1.9827287
1.2165035 -2.9678891 1.9849747
3.1456797 -2.9655838 1.9894851
3.550499 -2.9644973 1.9898901
2.9080586 -2.9585972 1.9866741
-1.5287887 -3.0003259 1.9928324
-1.8245232 -2.9982042 1.9928968
0.95569098 -2.9809175 1.9999026
0.86966324 -2.9792702 1.9944052
1.0418906 -2.9780636 1.999244
1.1296067 -2.9755776 1.9955075
1.3703953 -2.9778392 1.9939891
1.6468685 -2.970876 1.9971334
-2.2627289 -3.0113604 2.0072594
-2.1827044 -3.0041094 2.0047147
-2.111213 -3.0068402 2.0075152
-1.9660869 -3.0038583 2.0035722
-1.6547883 -2.9965565 2.0085218
0.75170153 -2.9795125 2.0002606
1.1845365 -2.9741123 2.0099723
1.2775435 -2.9778121 2.0049846
1.4293139 -2.9764416 2.0036876
1.7147672 -2.9772403 2.0065758
1.7779514 -2.9732018 2.0080564
1.4864179 -2.9691365 2.0084817
1.8404434 -2.9664133 2.0065448
1.9091302 -2.9679844 2.0093324
2.8314562 -2.9678884 2.0084178
-1.7237142 -3.0020983 2.0197706
-1.4939046 -3.0024893 2.0197775
-1.4334543 -3.0059021 2.010323
-1.3346781 -3.0016975 2.0174837
0.83725631 -2.9865034 2.013875
1.9796184 -2.9703872 2.0114384
1.3315046 -2.9683125 2.0113435
-1.8556985 -2.9964125 2.0275204
0.80139953 -2.9823444 2.0252566
1.0096941 -2.9851913 2.0217316
1.5548607 -2.9820838 2.0255914
0.88481212 -2.9758687 2.0284302
1.2407321 -2.9729586 2.0237486
1.6115471 -2.9699614 2.0250666
-2.0713804 -3.001636 2.0395606
-1.9321157 -3.0073533 2.0390296
0.76624382 -2.9814467 2.0381444
1.1532985 -2.9835157 2.0365429
1.3962063 -2.9801896 2.0308509
1.0595064 -2.973757 2.0323744
1.6775489 -2.9733093 2.0336969
1.2968501 -2.9689674 2.0347142
1.4517659 -2.9697678 2.03459
1.7401755 -2.9685469 2.035805
1.9381353 -2.9607084 2.0393682
-1.6225077 -3.0039637 2.0412545
-1.4566855 -3.0008307 2.0435009
0.85206085 -2.9838703 2.0487523
1.2052557 -2.9720523 2.0444548
1.5140887 -2.9712162 2.0452023
1.8106436 -2.9751668 2.0443649
1.8743367 -2.9685543 2.042891
2.0112104 -2.9654272 2.0430303
2.8802347 -2.966186 2.042573
-1.6901022 -3.0071981 2.0521309
-1.5208361 -3.0030069 2.0568457
-1.7526935 -2.9993896 2.0543067
1.1176702 -2.9826126 2.0556881
1.0253882 -2.9768496 2.0525331
1.2621304 -2.9704125 2.0579932
1.3576746 -2.9730654 2.050142
1.5809679 -2.9789405 2.0590072
2.7952027 -2.9670324 2.0572839
3.2578213 -2.9631875 2.0595591
