# .PCD v0.7 - Point Cloud Data file format
VERSION 0.7
FIELDS x y z
SIZE 4 4 4
TYPE F F F
COUNT 1 1 1
WIDTH 1466
HEIGHT 1
VIEWPOINT 0 0 0 1 0 0 0
POINTS 1466
DATA ascii
0.67019671 0.48794827 0.25932255
0.78553349 0.48439431 0.25331843
0.85682505 0.4876698 0.25809431
0.89188254 0.48387951 0.25062606
0.92357451 0.48932892 0.2591179
0.99392831 0.489066 0.25870064
1.0615187 0.48400939 0.25519371
1.2697048 0.48955047 0.25539201
0.23910569 0.49125797 0.25365958
0.26814452 0.49065015 0.25392541
0.28156272 0.49044952 0.25632441
0.33344752 0.4919228 0.25007686
0.46466374 0.49343207 0.25718758
0.50852877 0.49515319 0.25614867
0.52767467 0.49238938 0.25323907
0.66096896 0.49039403 0.25596392
0.7059173 0.4911465 0.25771737
0.75491482 0.49188784 0.25919247
0.85306448 0.4954313 0.25701597
0.88987255 0.49279708 0.2500875
0.98036861 0.493514 0.25531983
1.1672435 0.49018085 0.25746128
1.4069633 0.49477366 0.25589976
1.558959 0.49704251 0.25395441
1.7967949 0.49695602 0.25878584
2.0242803 0.49680692 0.25403449
2.8740592 0.50177383 0.2553696
-0.32242292 0.47494355 0.26020002
-0.2926901 0.47548208 0.26575989
-0.28567478 0.4722659 0.26345462
-0.27875462 0.47674271 0.26601681
-0.26425409 0.4764885 0.2600424
-0.25626707 0.47522718 0.26581097
-0.22589761 0.47837639 0.26383767
-0.21672396 0.47449738 0.26541996
-0.20971969 0.47733271 0.26264891
-0.19514012 0.47610483 0.26645857
-0.18543588 0.47779974 0.26425195
-0.1744772 0.47565842 0.26919562
-0.16852117 0.47482118 0.26466236
-0.15418647 0.47334906 0.26678383
-0.12396598 0.47233388 0.26510328
0.095203884 0.4758327 0.26570901
0.11624892 0.4730145 0.26824665
0.12361096 0.47466463 0.2671631
0.13519749 0.47784004 0.26357892
0.14624041 0.47719046 0.26751518
0.15389879 0.47868443 0.26547104
0.17450202 0.47787431 0.26751059
0.18548232 0.47361442 0.26402315
0.21549934 0.47779816 0.26400566
0.22319727 0.47602123 0.26638538
0.23502702 0.4769029 0.26684684
0.24697918 0.47982159 0.26976463
-0.32574224 0.48734492 0.26318875
-0.31263044 0.4833684 0.26084268
-0.30399054 0.48266309 0.26556534
-0.28307366 0.48383483 0.26076108
-0.27311882 0.48342922 0.26988766
-0.26298141 0.48641604 0.26357064
-0.25302398 0.4817512 0.26707023
-0.243183 0.48076099 0.26533443
-0.23222405 0.48527813 0.26177275
0.13514066 0.48398587 0.26813886
0.14650536 0.48117217 0.26333863
0.16153444 0.48538396 0.26755694
0.17387544 0.48449114 0.26229084
0.18460155 0.48466825 0.26729578
0.19480249 0.48248902 0.26662856
0.20547605 0.48526338 0.26594269
0.21292868 0.48476681 0.2655727
0.22742863 0.48188207 0.26787955
0.23471493 0.48087335 0.2621586
0.24664724 0.48386967 0.26501253
0.25716394 0.4877677 0.26605493
0.26578775 0.48360676 0.26643887
0.27262366 0.48004371 0.26651078
0.28305322 0.48671025 0.26643533
0.29375428 0.48614988 0.26314351
0.30606461 0.48619598 0.26682866
0.31592757 0.48306516 0.26515016
0.32170367 0.48331177 0.26950276
0.33910683 0.48079354 0.2632561
0.35773236 0.48805451 0.2664572
0.36392447 0.48345304 0.26409134
0.38509125 0.48439643 0.26447806
0.40539223 0.48737973 0.26676095
0.41422454 0.48499805 0.26165265
0.42396459 0.48756301 0.26727608
0.43374014 0.48587322 0.26224253
0.45684767 0.48556334 0.26403642
0.47369012 0.4861899 0.26178673
0.48195329 0.48598611 0.26599702
0.50643528 0.4846397 0.26673168
0.51778072 0.48713842 0.26046294
0.52560532 0.48578846 0.26411161
0.5370667 0.48733059 0.26945615
0.5537073 0.48960593 0.26482952
0.57478774 0.48682189 0.2615658
0.6072495 0.48348567 0.26220202
0.61543971 0.48106512 0.2655111
0.63655174 0.48480266 0.26047587
0.64564645 0.48259678 0.26396701
0.69431841 0.48624897 0.26810214
0.77562678 0.48560086 0.26592219
0.81262606 0.48538888 0.26160145
0.87952787 0.48951861 0.26460424
0.89538449 0.48754421 0.26915106
0.94048202 0.48718846 0.26364824
1.0987641 0.48804614 0.26379248
1.2244724 0.48731214 0.26962566
0.32485896 0.49027294 0.26247418
0.33129886 0.4912104 0.26715305
0.40263623 0.49218443 0.26510498
0.45033756 0.4909769 0.26057497
0.68664527 0.49006742 0.26530933
0.72344154 0.49324241 0.26375145
0.73941535 0.49404833 0.26925167
0.76942682 0.49124646 0.2639077
1.0271362 0.49300408 0.26698029
1.2059355 0.49274707 0.26568553
1.3135003 0.4918901 0.26390499
1.4559863 0.49632302 0.26454383
1.6084856 0.49607885 0.26179862
1.8516699 0.49347749 0.26649803
2.1193802 0.49853581 0.26571128
2.4397819 0.4994311 0.26113519
3.0079753 0.49609089 0.26708576
-0.30495363 0.47814515 0.27819073
-0.26948205 0.47778726 0.27604169
-0.25935563 0.47704175 0.274616
-0.24153833 0.4790211 0.27369449
-0.2345276 0.47933799 0.27529004
-0.2208973 0.47673169 0.2786122
-0.21498734 0.47783655 0.27570939
-0.20410085 0.47111267 0.27654758
-0.19509105 0.47847673 0.27404881
-0.18799189 0.47392136 0.27429852
-0.17504463 0.47572914 0.27643096
-0.1450028 0.47437644 0.27489382
-0.13952473 0.47352538 0.27226812
-0.12129112 0.47352111 0.27396306
0.085252799 0.47407398 0.27332404
0.099261425 0.4758836 0.27526799
0.10364588 0.47330016 0.273902
0.11485324 0.473524 0.27592978
0.12544516 0.47475892 0.27566066
0.13416605 0.47559974 0.27628395
0.14370295 0.47848654 0.2777344
0.15217409 0.47745928 0.27682954
0.16074297 0.47637811 0.27561793
0.17257108 0.47428566 0.27392948
0.19004941 0.47685355 0.27871263
0.20839354 0.47484383 0.2736913
0.21324886 0.47690904 0.27927667
0.2255515 0.47763434 0.27478528
0.23681349 0.47553751 0.27759784
0.24933571 0.47602037 0.27204031
0.25737345 0.47872722 0.27522057
0.26326632 0.47743842 0.27618974
-0.32345852 0.48297194 0.27094004
-0.31647435 0.48399588 0.2743561
-0.30748972 0.4821265 0.2756699
-0.29106316 0.48042205 0.27921611
-0.28543559 0.48347402 0.27830005
-0.27756366 0.48279917 0.27482417
-0.26734442 0.48209786 0.27358264
-0.25311917 0.48293555 0.27760458
-0.2477228 0.48114517 0.27094063
-0.22865985 0.4819335 0.27831751
0.10859138 0.48256624 0.27365881
0.13139576 0.48192638 0.27640212
0.14555466 0.48259938 0.27587485
0.15253119 0.4815239 0.27261761
0.16413027 0.48471081 0.2758562
0.18169369 0.48321721 0.27705428
0.19427182 0.48169589 0.27487731
0.20617348 0.48262471 0.27561894
0.21720847 0.48520148 0.27467597
0.22025086 0.48316041 0.27805486
0.23661961 0.4832873 0.27739707
0.24536182 0.4840312 0.27718163
0.27405825 0.48884907 0.27687404
0.28714156 0.48426807 0.27447718
0.29666489 0.48488212 0.27315944
0.30489245 0.48628789 0.27521646
0.3106803 0.48108914 0.27043483
0.32216936 0.48952198 0.27941108
0.33286017 0.4868024 0.27790982
0.34843406 0.48239645 0.2796025
0.35392883 0.4842681 0.27363458
0.38522932 0.48912573 0.2746796
0.39538425 0.48673886 0.27604485
0.40686637 0.48555312 0.2780847
0.42384082 0.48770285 0.27784598
0.43450502 0.48676741 0.27336159
0.44379282 0.48443523 0.2787239
0.45149738 0.48810229 0.27208552
0.47759414 0.48562345 0.27506754
0.49475625 0.48574173 0.27252048
0.50342202 0.48152459 0.27693591
0.52370322 0.48350978 0.27515382
0.54713482 0.48749575 0.274151
0.57332456 0.48464319 0.27356368
0.58649099 0.48234001 0.27942574
0.61421061 0.4872545 0.27829984
0.63918871 0.48941657 0.27510631
0.6451326 0.48499545 0.27750778
0.66346228 0.48608345 0.27080587
0.67740297 0.48665741 0.2761572
0.70926791 0.48688978 0.2735433
0.72346616 0.48678616 0.27871105
0.7422896 0.48671439 0.27024138
0.79858613 0.48926499 0.27338213
0.85583001 0.48923153 0.27481022
0.91388774 0.48658335 0.27445677
0.96801162 0.48965675 0.27102479
1.0452448 0.48987219 0.27149528
1.1545217 0.48685899 0.27666512
1.2587299 0.48711488 0.27690732
0.28515226 0.49230692 0.27740175
0.33722997 0.49130586 0.27146223
0.34429091 0.49277049 0.27659234
0.36076555 0.49292329 0.2784217
0.37693822 0.49197635 0.27941173
0.38131806 0.49240986 0.27213961
0.41500282 0.49005544 0.27253556
0.46355104 0.4920232 0.27876699
0.47616947 0.49225512 0.27431002
0.57056499 0.49487978 0.27233505
0.59644043 0.49512169 0.27075684
0.60537249 0.49341488 0.27454826
0.76742738 0.49245164 0.27889702
0.84866548 0.49520823 0.27261981
0.99565268 0.49166059 0.27843118
1.1343371 0.49073148 0.27200514
1.3536953 0.49224788 0.27171811
1.5004182 0.49561673 0.27237839
1.673375 0.49841458 0.27207613
2.2234104 0.50041968 0.27848461
2.5807528 0.50231642 0.27595183
-0.30528158 0.47846764 0.28375804
-0.28725702 0.47466284 0.28558969
-0.27863795 0.47707862 0.28657436
-0.26828861 0.47651389 0.28526193
-0.25342178 0.47621721 0.28337494
-0.23021623 0.47701195 0.2804597
-0.20904543 0.47390869 0.28416157
-0.1981329 0.47547776 0.2849884
-0.18668896 0.47544363 0.28438362
-0.17420985 0.47530457 0.28790843
-0.16266911 0.47436333 0.28600138
-0.15433365 0.47406375 0.28289968
-0.14448778 0.47298536 0.28341532
-0.13549545 0.47275257 0.28287786
-0.10134932 0.47317076 0.28846496
0.088588282 0.47319803 0.28568047
0.094841391 0.47386384 0.28261849
0.11543283 0.47427067 0.28452882
0.12371996 0.47848883 0.28290939
0.13653708 0.47431108 0.28567305
0.14329557 0.47390565 0.28372023
0.15562746 0.47500032 0.28386676
0.16490375 0.47439846 0.28503746
0.17781878 0.47495967 0.28115231
0.19054317 0.47925359 0.28879791
0.20493619 0.47610182 0.28177306
0.21619233 0.47485939 0.28266278
0.22235712 0.47652632 0.28350812
0.23807201 0.477492 0.28821188
0.26795414 0.47736666 0.28056121
0.28450429 0.4777506 0.28627971
0.29262424 0.47999531 0.28389701
0.341189 0.47833258 0.28418604
-0.29941371 0.4853127 0.28817099
-0.28879562 0.48492059 0.28729853
-0.27606502 0.48076788 0.28361455
-0.26576772 0.48013917 0.28225765
-0.25686949 0.48163778 0.28223586
-0.24625948 0.4846307 0.28521782
-0.21753687 0.48064685 0.28520498
0.17333032 0.48233402 0.2844032
0.18850209 0.48282343 0.2860893
0.19704594 0.48479164 0.28766778
0.2365447 0.48678678 0.28657404
0.24420208 0.48121375 0.28524894
0.25347352 0.48650318 0.28529334
0.2630159 0.48389208 0.28525114
0.27936468 0.48947167 0.28165194
0.28231141 0.48617381 0.28430521
0.29212624 0.4871639 0.2834641
0.30455178 0.48383209 0.28447473
0.31359681 0.48707515 0.28226513
0.32355481 0.48642978 0.28540179
0.33484727 0.48437178 0.28430903
0.35610583 0.48432705 0.28517637
0.37764367 0.48741847 0.28505349
0.38596979 0.48297787 0.2855036
0.40175393 0.48444909 0.28541082
0.4126628 0.4840517 0.28170669
0.43628526 0.48495197 0.28532335
0.45504484 0.48773974 0.28522027
0.46899828 0.48930919 0.28178644
0.47578904 0.48779303 0.28555059
0.49475744 0.48545313 0.28419343
0.51107639 0.48022979 0.28083602
0.53898633 0.48418352 0.28260788
0.5460819 0.48187244 0.28606862
0.63482195 0.48501754 0.28704882
0.66266829 0.48400742 0.28459269
0.69681573 0.48605931 0.28360906
0.7377159 0.48645222 0.28389752
0.75283629 0.48637179 0.28940091
0.78725731 0.48526004 0.285725
0.88990414 0.48689067 0.28522775
0.93681538 0.48739323 0.28103116
0.95279956 0.48456606 0.28561455
1.0896558 0.48603028 0.28256816
0.37186438 0.4908244 0.28619316
0.40272778 0.49343091 0.28604323
0.49267662 0.49158469 0.28308704
0.56384492 0.4927907 0.28194305
0.57108754 0.49024794 0.28532031
0.78440541 0.4929862 0.28474301
0.82082027 0.49207893 0.28060645
0.84485537 0.49542606 0.28841591
0.88530666 0.49455598 0.28382212
1.0189538 0.49124455 0.2846747
1.0840693 0.49506426 0.28117532
1.1957846 0.49052495 0.2861914
1.3079166 0.49141619 0.28736231
1.4080365 0.49643472 0.28228095
1.5515724 0.496086 0.28139827
1.726948 0.49663225 0.28056124
1.7739054 0.49224338 0.28799856
1.9529324 0.49986297 0.28072953
2.6846757 0.49648878 0.28687456
3.2120433 0.49797639 0.28493938
-0.29546991 0.47945866 0.29471105
-0.27996665 0.47995147 0.29917926
-0.26728165 0.47587541 0.2950938
-0.24750379 0.47396165 0.29636258
-0.23984957 0.47176582 0.29371884
-0.22665626 0.47387224 0.29270327
-0.20404115 0.47672117 0.2945784
-0.18639633 0.47197676 0.29690999
-0.17304894 0.47469392 0.29953238
-0.16395694 0.47344196 0.29571581
-0.15479006 0.47131678 0.29116449
-0.14472087 0.47420356 0.29154181
0.098746635 0.47471109 0.29925489
0.11592173 0.474823 0.29530272
0.12474581 0.47512853 0.29621252
0.14831191 0.47492653 0.29585493
0.1554949 0.47931224 0.2973595
0.16647461 0.4749746 0.29923636
0.17564212 0.47669637 0.29264078
0.18449593 0.47569132 0.2952711
0.20084159 0.47670922 0.29252601
0.22605102 0.47856063 0.29400387
0.23399211 0.47770101 0.2933161
0.24114665 0.47521138 0.29150903
0.25206009 0.4753682 0.29338616
0.26407582 0.47689161 0.29589561
0.28305751 0.4742367 0.29464534
0.41896078 0.47970775 0.29658508
-0.30162996 0.48075095 0.29054761
-0.28711423 0.48270673 0.29632524
-0.27698359 0.48300979 0.29562417
-0.26535475 0.48510817 0.29834238
-0.25746369 0.48407945 0.29407802
-0.24395929 0.48231378 0.29354933
0.13442099 0.48211688 0.2980912
0.188124 0.4835372 0.29533625
0.19689733 0.48085555 0.29230112
0.20936637 0.48622301 0.2935175
0.21536523 0.48191923 0.29433703
0.23422101 0.48628902 0.29357031
0.25081229 0.48517233 0.29209402
0.26476389 0.4862808 0.29331467
0.27583754 0.4853543 0.29763281
0.28023598 0.48155043 0.29201418
0.29693085 0.48506179 0.29746863
0.30228299 0.48270682 0.29229325
0.31879979 0.48863482 0.29643023
0.32701758 0.48621678 0.29313302
0.33561593 0.48712426 0.29495004
0.34420818 0.48386735 0.29662967
0.35562664 0.4851189 0.29506558
0.36742377 0.48661733 0.29339933
0.37245318 0.4809871 0.29705343
0.38402647 0.48564953 0.29470915
0.39713937 0.48401558 0.29303756
0.40402344 0.48387182 0.29768094
0.41446373 0.48271203 0.29366463
0.43324381 0.48618174 0.29456714
0.44582787 0.482795 0.29105714
0.45635661 0.4853099 0.29738343
0.46472567 0.48339051 0.29655927
0.47313878 0.48138338 0.29566681
0.48395151 0.487434 0.29007515
0.49145988 0.48632339 0.29423711
0.50715435 0.4804759 0.29078496
0.53933001 0.48799688 0.29523194
0.5449546 0.48446092 0.29809782
0.56562126 0.48932913 0.29559863
0.57353795 0.48726177 0.29945984
0.58931351 0.48767835 0.29381925
0.59357697 0.48254627 0.2958073
0.62212491 0.48335642 0.29529101
0.63179064 0.48169523 0.29959446
0.6557312 0.48655489 0.29592428
0.66085166 0.48136652 0.29809779
0.69263643 0.48175901 0.2967006
0.76718491 0.48556668 0.29462337
0.80849254 0.487674 0.29303688
0.86078751 0.48423728 0.2935926
0.9363355 0.48924363 0.29942322
1.224336 0.48881117 0.29278302
0.28065273 0.49023944 0.29240283
0.41613796 0.49241236 0.29475191
0.42792112 0.49250185 0.29124117
0.51347989 0.4940908 0.2941483
0.53226894 0.49025294 0.29163414
0.58575666 0.49333563 0.29216063
0.61270708 0.49349663 0.29109791
0.62238455 0.49204203 0.29540661
0.69381821 0.49135152 0.29717806
0.73331344 0.49551111 0.29761922
0.85538882 0.49122635 0.29183844
0.92044228 0.49185431 0.29456416
0.98908192 0.49065322 0.29601836
1.0432146 0.4908236 0.29117537
1.0729178 0.49224535 0.29913431
1.1304997 0.49090651 0.29275173
1.3526179 0.49332735 0.29686382
1.4531614 0.49676463 0.29105237
1.4795719 0.49064535 0.29618606
1.6018963 0.4954147 0.2902717
2.0264018 0.49821949 0.29105499
2.3334732 0.50165212 0.29199859
-0.2638751 0.47153741 0.30228424
-0.25961268 0.47379169 0.30857906
-0.24530342 0.47516558 0.30723432
-0.23532116 0.47891289 0.30532056
-0.22475886 0.47635496 0.30414283
-0.21419129 0.47669017 0.30461556
-0.20781052 0.47129303 0.30728227
-0.19482537 0.47325206 0.30512989
-0.18326129 0.47413725 0.30493173
-0.17459565 0.47302598 0.30742776
-0.16027573 0.47098401 0.30292854
-0.15696537 0.4738161 0.30349725
-0.14787866 0.47669956 0.30695757
0.095964603 0.47325867 0.30594674
0.11258738 0.47427389 0.30666196
0.12429211 0.47690666 0.30115813
0.13606176 0.47322956 0.30713153
0.14445044 0.4788577 0.30558485
0.16686812 0.47356087 0.30520698
0.17724338 0.47928664 0.30536318
0.19629006 0.47439426 0.303141
0.2068096 0.47822297 0.30520612
0.22398859 0.47493953 0.30141121
0.23501652 0.47608298 0.30935213
0.25382209 0.47422966 0.30510175
0.28360614 0.47799897 0.30513489
0.33235821 0.47597405 0.30780712
0.34881204 0.47810933 0.3002266
0.54911435 0.47968745 0.30021733
0.55908024 0.47945482 0.3052952
-0.2915372 0.48172346 0.30141324
-0.28609022 0.48183948 0.30647704
-0.27541247 0.48150349 0.30513453
-0.26230186 0.48147759 0.3061586
0.16130979 0.4831683 0.30703712
0.17431481 0.48159561 0.30616143
0.1991545 0.48255825 0.30022556
0.20837319 0.48509932 0.30216601
0.21549991 0.48274302 0.30109179
0.22340506 0.48638731 0.30575883
0.23414968 0.48375368 0.30667543
0.24577129 0.48369718 0.30639821
0.25458723 0.48757449 0.3059223
0.26255247 0.48169374 0.30425131
0.27578014 0.48446772 0.30759993
0.28079799 0.48142251 0.30242309
0.29606956 0.48251355 0.30677927
0.3062923 0.4871909 0.30589768
0.31455487 0.48482275 0.30296105
0.324323 0.48526785 0.30448914
0.33099055 0.48190135 0.30665949
0.34054691 0.48481101 0.30408883
0.35858729 0.48264059 0.30786386
0.3669793 0.48356223 0.30362043
0.38577378 0.4810687 0.3067314
0.39860189 0.4827514 0.30491498
0.40420905 0.48116454 0.30884117
0.415016 0.48410904 0.30509549
0.44753343 0.48887911 0.30349627
0.45607886 0.48544717 0.30883607
0.47629303 0.4885366 0.30936244
0.48866391 0.4878042 0.30463025
0.49749678 0.48778835 0.3097299
0.50514644 0.4825362 0.30182368
0.51619327 0.48409921 0.30794704
0.54073995 0.48468611 0.30864275
0.61216336 0.48785281 0.30447426
0.6461252 0.48306221 0.30597663
0.67619586 0.48281035 0.304611
0.78489554 0.48640627 0.30106953
0.8035109 0.48741183 0.30784497
0.84617704 0.48874614 0.30601269
0.8884539 0.48837653 0.30258194
0.95487529 0.4875969 0.30509141
1.0337368 0.4887003 0.30882293
1.0847483 0.48583364 0.30230427
1.2973216 0.48934239 0.30963308
0.38907504 0.49278483 0.30912989
0.43673736 0.49042091 0.30812931
0.50863677 0.49371603 0.30375838
0.53168559 0.49350119 0.30382848
0.54013002 0.49239278 0.30831844
0.5896129 0.49130511 0.30730012
0.72106236 0.49072328 0.3081854
0.74266797 0.49208623 0.30121008
0.75610477 0.49094483 0.30636799
0.83656597 0.49336088 0.30270332
1.0122639 0.49025321 0.30266568
1.161509 0.49122834 0.30048323
1.1916962 0.49068365 0.30800971
1.264003 0.49052614 0.30194089
1.4011797 0.49567676 0.30718595
1.6618359 0.49647322 0.30084068
1.712377 0.49399883 0.30975243
1.8574106 0.4959293 0.3012245
2.4320073 0.49879554 0.30409709
2.8387825 0.49684912 0.30307186
2.1280766 0.50134403 0.30534443
-0.27099636 0.47562605 0.31139901
-0.26743245 0.47928247 0.31895623
-0.25872603 0.47437164 0.31970009
-0.24597535 0.47771919 0.31442735
-0.23716727 0.47602102 0.31430823
-0.22553116 0.47432578 0.31606737
-0.21225236 0.47291589 0.31467471
-0.20490748 0.47364837 0.31593901
-0.19563796 0.47793049 0.31358233
-0.18496095 0.47352165 0.31536141
-0.1671893 0.47410768 0.31775475
-0.15421146 0.47076479 0.31338882
0.079313591 0.47289377 0.31985614
0.08859095 0.47269979 0.31545246
0.097690009 0.47248882 0.31068724
0.10483869 0.4753381 0.31512523
0.11661846 0.47717434 0.31615859
0.12414462 0.479442 0.31994292
0.14501075 0.47350851 0.31847203
0.15466833 0.47487891 0.31249475
0.16440739 0.47381541 0.31501245
0.17534442 0.47743094 0.31313094
0.18447234 0.47374707 0.31349629
0.19338785 0.47730663 0.3130483
0.2069944 0.4753263 0.31062946
0.22330385 0.47440606 0.31072888
0.24543326 0.47536054 0.3163006
0.25422084 0.47494835 0.31578237
0.27387527 0.4768883 0.31597644
0.29729667 0.47557065 0.31835568
0.30960986 0.47901616 0.31940579
0.35498533 0.47607961 0.31578088
0.38449675 0.477099 0.31682077
0.40293542 0.4770481 0.31920007
0.58771122 0.47667745 0.31988338
0.59584582 0.47923565 0.31034014
0.21624748 0.48320863 0.3157607
0.22394513 0.48378965 0.31152079
0.24662718 0.48555279 0.31767404
0.25591478 0.48590735 0.31766367
0.26575351 0.48693353 0.31789666
0.27229232 0.48617166 0.31433722
0.29624021 0.48574811 0.31733549
0.30605328 0.48561791 0.31608921
0.31467181 0.48357648 0.31344265
0.32923862 0.48570734 0.31572545
0.34288043 0.4820706 0.31663626
0.35322395 0.48553669 0.31435454
0.36958456 0.48837775 0.31645587
0.37886855 0.48612249 0.3125796
0.39665249 0.48567328 0.31463525
0.41595882 0.48611823 0.31706843
0.42984393 0.48801923 0.31509706
0.43560994 0.48607528 0.3189863
0.44646949 0.48840237 0.31444943
0.45429146 0.48426709 0.31952909
0.46331719 0.4805744 0.31335908
0.48031151 0.48429301 0.311777
0.49105728 0.48615843 0.3182337
0.50567919 0.48701957 0.31445402
0.51527077 0.48732334 0.31999174
0.53422457 0.48313576 0.31794193
0.547023 0.48164758 0.31198353
0.56197947 0.48540154 0.31993601
0.57716125 0.48529062 0.3145079
0.5842942 0.4824169 0.31814235
0.6263172 0.48956642 0.31107432
0.6390152 0.48996633 0.3169955
0.67578191 0.48558739 0.31918064
0.69716465 0.48754895 0.31351173
0.73354459 0.48933628 0.31322855
0.74524772 0.48726332 0.31795692
0.78226316 0.48753962 0.31640926
0.83591747 0.48580679 0.31963998
0.86682296 0.48968691 0.31312165
0.87047935 0.48166963 0.31438065
0.92427343 0.48568991 0.3142204
0.98047364 0.48883519 0.31291759
0.99824107 0.48612279 0.31834966
1.0570419 0.48754019 0.31550556
1.1190959 0.48820132 0.3115077
1.2219603 0.48962927 0.31555542
0.53362942 0.49082839 0.31761205
0.60132313 0.49171439 0.31301159
0.67221272 0.49202579 0.31759155
0.77614236 0.49340329 0.31405967
0.8263877 0.49037477 0.31617144
0.91970062 0.49373123 0.3127346
1.4442687 0.49543858 0.31634483
1.552223 0.49759668 0.31030798
2.2105443 0.49872226 0.31693453
2.9970229 0.49512875 0.31970358
-0.23394059 0.47714236 0.32249674
-0.22474834 0.47281462 0.32834435
-0.21339017 0.47322863 0.3258605
-0.20304605 0.4748891 0.32694691
-0.1927091 0.47302067 0.32270044
-0.18456998 0.47430035 0.32730004
-0.16914134 0.47138706 0.3219409
-0.14224188 0.47272587 0.32854164
0.10839249 0.47309598 0.32438323
0.11488129 0.47582415 0.32606447
0.12434949 0.47586447 0.32718202
0.1324551 0.47501451 0.32483476
0.1430631 0.47798413 0.32719946
0.15517199 0.47737604 0.3253153
0.16274679 0.47295904 0.32684284
0.17483491 0.47568101 0.32362729
0.19671106 0.47809541 0.32328656
0.20499831 0.47704589 0.32590598
0.21580644 0.47479063 0.32779476
0.23501059 0.47731322 0.32518548
0.25010678 0.47588098 0.32167685
0.26488286 0.47363922 0.32762375
0.27492234 0.4784224 0.32411847
0.32502732 0.47850981 0.32276678
0.46535245 0.47910306 0.32671216
0.53495705 0.47759527 0.32480603
0.64679545 0.47811514 0.32062349
-0.25649199 0.48086473 0.32944667
0.17629695 0.48174998 0.32029626
0.18715778 0.48052961 0.32593787
0.20646273 0.48421523 0.32057732
0.21512353 0.48146135 0.32690412
0.22904073 0.48304605 0.32861924
0.23247792 0.4845041 0.3220579
0.26703626 0.48511291 0.32459092
0.28861955 0.48513815 0.32043934
0.29570523 0.4881945 0.32752505
0.32367426 0.48779899 0.326985
0.33659339 0.48385853 0.32211885
0.34289518 0.48044115 0.32759687
0.3552911 0.48628861 0.32705006
0.37503847 0.48638177 0.32444543
0.39883325 0.48559436 0.32762408
0.42286378 0.48560622 0.32190335
0.43041566 0.48563042 0.32719123
0.44554442 0.48426023 0.3256872
0.48250377 0.48668975 0.3253482
0.50285089 0.4846769 0.32532001
0.52212036 0.48508823 0.32394633
0.5559625 0.4844532 0.32999149
0.5712133 0.48436156 0.32484573
0.62287283 0.48620445 0.32352209
0.64561778 0.48591602 0.32007432
0.68953234 0.48571315 0.32530272
0.71784532 0.48263425 0.32229015
0.73424363 0.48356909 0.32925081
0.75697249 0.48500377 0.32269403
0.76953548 0.48302653 0.32776982
0.80159688 0.48898378 0.32383078
0.85388064 0.48547941 0.32617804
1.026639 0.48771185 0.32703176
1.2522955 0.48806384 0.32311884
0.38900065 0.4901495 0.32021469
0.40822622 0.49074546 0.32304403
0.71746248 0.49142271 0.32212767
0.91006058 0.49136895 0.32800955
0.95658547 0.49061456 0.32471922
1.0902429 0.49002177 0.32502577
1.1544685 0.49033129 0.32098576
1.1863291 0.49048701 0.32952279
1.3455409 0.49253935 0.32076538
1.4771409 0.49134082 0.32333201
1.6033443 0.49714229 0.32024497
1.7945318 0.49864566 0.32423854
2.01823 0.49745408 0.32669577
2.5638962 0.50014371 0.32029098
-0.24927604 0.47879094 0.33226025
-0.23685582 0.47281212 0.33387214
-0.22468303 0.47492212 0.33536282
-0.21708074 0.47208738 0.33702374
-0.200361 0.47085834 0.33709159
-0.1922745 0.47460023 0.33726466
0.1128579 0.47434071 0.336016
0.12649742 0.47518393 0.33214039
0.13611767 0.4731915 0.33724207
0.14610948 0.47496229 0.33332089
0.15889461 0.47852078 0.33856994
0.16863225 0.4782868 0.33105078
0.18676868 0.47718233 0.33109951
0.2056236 0.47781873 0.33624771
0.23510601 0.47482347 0.33638245
0.28372428 0.4768157 0.33716795
0.29503167 0.47881562 0.33788452
0.33711076 0.47921979 0.33364677
0.49712452 0.4798944 0.33448425
0.16242945 0.48295611 0.33238837
0.18337518 0.48306179 0.33162379
0.19481701 0.48234299 0.33773205
0.22265051 0.48086709 0.33707175
0.23546505 0.48350123 0.336842
0.24400041 0.48228177 0.33628699
0.25406036 0.48333925 0.33351082
0.26213488 0.48114294 0.33551359
0.29425454 0.48562032 0.33334374
0.30706209 0.48434484 0.33515
0.31330901 0.48339632 0.33381861
0.32644001 0.48315495 0.33510017
0.33473253 0.48386854 0.33150539
0.35342312 0.48618454 0.33674869
0.3640787 0.48153535 0.33442375
0.37569162 0.48577249 0.3325485
0.3875286 0.48538512 0.33432147
0.39955536 0.48405424 0.33987162
0.4068017 0.48263621 0.33362877
0.42288291 0.48680902 0.33369273
0.43674478 0.48424199 0.33162293
0.44245449 0.48211658 0.33562091
0.45357537 0.48034823 0.33110413
0.46390024 0.48240465 0.33806837
0.49921891 0.48986313 0.33579296
0.51333469 0.4817155 0.33161929
0.53668201 0.48921463 0.3323535
0.5483712 0.48234573 0.33910227
0.56294245 0.48172116 0.33386055
0.58584356 0.48306984 0.33262476
0.61574304 0.48887786 0.33416632
0.64026529 0.48557791 0.33200493
0.65369475 0.486137 0.33855495
0.67198163 0.4862918 0.33236802
0.70491779 0.48660952 0.33215278
0.86935651 0.48356003 0.3318108
0.92663497 0.48917297 0.33371657
0.97770929 0.48979527 0.33158278
1.051591 0.48731712 0.33466035
1.109205 0.48619953 0.33046311
1.2137254 0.48843119 0.33686361
0.47057754 0.49210951 0.33010539
0.79857188 0.49008119 0.33950129
0.8210125 0.49009973 0.33128372
0.84134161 0.49133229 0.33908734
1.3001782 0.4920148 0.33505732
1.3864757 0.49249971 0.33021593
1.532617 0.49330553 0.33512384
1.848163 0.49486589 0.33369517
2.3193686 0.4998323 0.33222878
2.6861949 0.4975552 0.33530736
-0.22554533 0.47503915 0.34409201
-0.21250632 0.47571984 0.34401366
-0.19531652 0.47378856 0.34323496
-0.17985238 0.47538254 0.34491083
-0.16494988 0.47029087 0.34717485
0.11064253 0.47739267 0.34627402
0.12601408 0.47453129 0.3457191
0.15527198 0.47431445 0.34483367
0.16183476 0.47444108 0.34409958
0.17339045 0.47290036 0.34566382
0.18493703 0.47865349 0.34635943
0.19537134 0.4772861 0.34465486
0.20037423 0.47482345 0.34628943
0.23276281 0.47592467 0.3448253
0.24172623 0.47542828 0.34485596
0.26446497 0.47792736 0.34964907
0.27248561 0.47491708 0.34742075
0.28824642 0.47606981 0.34201735
0.29467615 0.47811925 0.34891239
0.30138645 0.47276166 0.34446511
0.3237468 0.47464404 0.3438983
0.33722484 0.47818691 0.34515718
0.36042964 0.47930685 0.34283936
0.40262493 0.47961244 0.34226984
0.18889925 0.4801046 0.34046417
0.20727587 0.48290265 0.3446058
0.21634981 0.48338431 0.34584138
0.22442572 0.48148072 0.34530127
0.23094302 0.4844102 0.34241036
0.24854854 0.48265457 0.34190345
0.25540605 0.48248959 0.34455413
0.26637411 0.48477185 0.34610999
0.27395725 0.48103049 0.34335405
0.28247815 0.48281884 0.34716532
0.3015939 0.480847 0.34467992
0.31273475 0.48188081 0.34455457
0.32284671 0.48510456 0.34302908
0.33593509 0.48429647 0.34395447
0.35357898 0.48540467 0.34455377
0.37332436 0.48103714 0.34218177
0.38389391 0.48270476 0.34508437
0.39171824 0.48091486 0.34552658
0.41473478 0.48219508 0.34562624
0.43571904 0.48431677 0.34301877
0.45900977 0.48258233 0.34721303
0.47755536 0.48735523 0.34727886
0.49400261 0.4856604 0.34531781
0.51605397 0.48844302 0.34631267
0.53077507 0.48435783 0.34209856
0.54276222 0.48194712 0.34930116
0.55669707 0.480768 0.3439092
0.5778988 0.48503461 0.34215096
0.58565438 0.48256326 0.34644994
0.611889 0.48549503 0.3464734
0.63471776 0.48522747 0.34383443
0.64499205 0.48369655 0.34906942
0.66795141 0.48698375 0.34550837
0.73508447 0.4871344 0.34558386
0.74342924 0.48295856 0.34929919
0.76041812 0.48995194 0.34036124
0.78220487 0.48377788 0.34960917
0.84497017 0.48345086 0.34048021
0.89508492 0.48645797 0.34117517
0.90638888 0.481861 0.34528947
1.0192475 0.48671031 0.34507936
1.0792823 0.48759973 0.34312642
1.1425912 0.48766997 0.34003645
1.172471 0.48719892 0.34860435
0.28796962 0.49148825 0.34172055
0.45962572 0.49123117 0.34764433
0.48640874 0.49086702 0.34038627
0.63048106 0.49088967 0.3416757
0.69187844 0.49046284 0.34164605
0.7079668 0.49178386 0.34914815
0.72513986 0.49019983 0.34115621
0.78187275 0.49305436 0.3494682
0.82199621 0.49344382 0.34896535
0.95101535 0.49036536 0.34211141
0.97375035 0.49034354 0.3499397
1.0076455 0.49252909 0.34130961
1.2621816 0.49340186 0.34984744
1.3389916 0.49204695 0.34473458
1.4377593 0.49497619 0.34205568
1.5995461 0.49752018 0.34935004
1.7144495 0.49585876 0.34184164
1.9373662 0.49849254 0.34942409
2.4283726 0.49905744 0.34754831
3.2066498 0.49790111 0.34173626
2.1254311 0.50185168 0.34367475
-0.2096093 0.47546679 0.35448512
-0.1909329 0.47075275 0.35102472
-0.18269224 0.47455293 0.35100093
-0.15839827 0.47029659 0.35032621
-0.10737392 0.47239664 0.35725826
0.093086466 0.47234839 0.35744449
0.1133834 0.4716765 0.3538045
0.13574371 0.47385994 0.35345107
0.14464791 0.47325197 0.35834759
0.16706255 0.47659644 0.35393161
0.17777748 0.47607094 0.3534072
0.18376155 0.47635323 0.35725549
0.19612552 0.4748174 0.35838223
0.21371815 0.47660154 0.35415685
0.24981168 0.47442949 0.35520488
0.25679827 0.4736349 0.35209101
0.26180926 0.47444519 0.35827905
0.27728316 0.47490254 0.35293972
0.28818664 0.47610155 0.35350522
0.29971787 0.47789794 0.35431901
0.32227597 0.47970083 0.35409576
0.33655497 0.47635898 0.35626698
0.36052072 0.47797987 0.35472518
0.37297094 0.47893381 0.35374135
0.39082336 0.47796789 0.3568652
0.40125263 0.47594681 0.3532474
0.43014026 0.47992119 0.35121563
0.46346945 0.47890678 0.35033575
0.1995455 0.48064813 0.35750172
0.21973795 0.48237345 0.35068017
0.22551435 0.48085338 0.35280305
0.25939608 0.48609662 0.35529906
0.28879562 0.48492059 0.35418156
0.31633127 0.4866364 0.35994092
0.322 0.48719656 0.35381979
0.33634233 0.48389822 0.35606164
0.35398039 0.48090816 0.35475934
0.37113899 0.48458061 0.35214886
0.38784376 0.48240316 0.35436499
0.39883327 0.48109171 0.35128823
0.41893399 0.48155507 0.35501185
0.43880406 0.48086813 0.35774425
0.4507989 0.48362893 0.35397488
0.48473942 0.48596385 0.35212454
0.51300108 0.48624253 0.35765558
0.52485526 0.48781788 0.35181233
0.53230542 0.48588416 0.35646772
0.58206606 0.48383236 0.35855597
0.60782093 0.48209277 0.35873708
0.62223786 0.48009554 0.35197595
0.66369152 0.48766339 0.35859728
0.68227029 0.48758703 0.35249215
0.69664872 0.48794574 0.359505
0.71387315 0.48642716 0.35190234
0.76386231 0.48569912 0.35839656
0.79475039 0.48133951 0.35493442
0.82644963 0.48613629 0.3507646
0.8400141 0.48360139 0.35624504
0.87549877 0.48931217 0.35219905
0.94429713 0.48969647 0.35908696
0.97914875 0.48212084 0.3517985
1.1070564 0.48740998 0.35161784
1.2060525 0.48755369 0.35823369
0.352786 0.49066672 0.3596682
0.43437108 0.4923178 0.35440376
1.0599288 0.49307469 0.3582975
1.2915745 0.49086621 0.35772321
1.3806781 0.49231637 0.3551282
1.4789102 0.49344292 0.35155612
1.7677817 0.49318025 0.35220838
2.2067213 0.49900487 0.35654986
2.8321626 0.49660373 0.35322994
-0.17884973 0.47364524 0.36059353
0.1183539 0.47460631 0.36746082
0.13453342 0.47538167 0.36635846
0.1449886 0.47456136 0.36675927
0.1503897 0.47448805 0.36329558
0.16580695 0.4754892 0.36550975
0.17817874 0.47566968 0.36080083
0.18630326 0.4735465 0.36617684
0.19499439 0.47437689 0.3630977
0.20546055 0.47780874 0.3669678
0.21331728 0.47507039 0.36621997
0.22411773 0.47715384 0.36526984
0.26598209 0.4736993 0.36343211
0.2743288 0.47865754 0.36140433
0.28785849 0.47601742 0.36510524
0.30985951 0.47716916 0.36519456
0.31709784 0.47984156 0.36073473
0.35426131 0.47677368 0.36104393
0.41796649 0.4783181 0.36678198
0.46404767 0.47654027 0.3636007
0.5189088 0.47907442 0.36149207
0.18317583 0.48016143 0.36981586
0.21222886 0.48075235 0.36454397
0.2284141 0.48391965 0.36307099
0.2383607 0.48481122 0.36448115
0.24457273 0.48342851 0.36668834
0.25578952 0.48193455 0.36902249
0.27442592 0.48675284 0.36152008
0.28574702 0.48054868 0.36267626
0.29687691 0.48159844 0.36315674
0.30186766 0.48124501 0.36869952
0.31153071 0.48748094 0.36698669
0.32909659 0.48126379 0.36091641
0.33442199 0.480627 0.36624178
0.34879887 0.48453519 0.36809078
0.36946478 0.48108992 0.36277846
0.37680638 0.48203528 0.36938888
0.38613153 0.48263431 0.36518168
0.40134579 0.4819417 0.36569455
0.41732517 0.48556566 0.36626267
0.42685005 0.48198742 0.36119658
0.45001346 0.48414916 0.36619115
0.46474776 0.48522297 0.36410934
0.47960922 0.48612776 0.36163694
0.48607349 0.4840104 0.36616325
0.49719775 0.48515362 0.36052778
0.5446294 0.48784608 0.36416855
0.55282885 0.48618951 0.36929217
0.5625577 0.48544621 0.3611955
0.58903742 0.4806734 0.36258093
0.64367527 0.48646891 0.36337444
0.65087706 0.48266539 0.36720371
0.70639026 0.4851042 0.36425626
0.73243141 0.48874795 0.36055619
0.74311471 0.485973 0.36553791
0.78439432 0.4880822 0.36753801
0.82708657 0.4894053 0.3686603
0.86950016 0.48902431 0.36815816
0.90728951 0.48490348 0.36440235
1.0707045 0.48626405 0.36179873
1.1358035 0.48709667 0.3604067
1.3237747 0.48876014 0.36635122
0.61028683 0.49249756 0.36010394
0.6825006 0.49129689 0.36818099
0.89941621 0.49125433 0.36138007
1.0264156 0.49220136 0.36807382
1.4196845 0.49099201 0.36485359
1.5426207 0.49782136 0.36626485
1.6581557 0.49824408 0.36180788
1.8383762 0.49378899 0.36593053
2.5482593 0.49830472 0.36439729
3.3987889 0.49467728 0.36193091
2.0277274 0.5007875 0.36535719
0.13618353 0.47269028 0.37032104
0.14384463 0.47146446 0.37207931
0.15342513 0.47551316 0.37499875
0.16378307 0.47699431 0.3762508
0.17708203 0.47869959 0.37277552
0.18734092 0.47425801 0.37732983
0.19485024 0.4747563 0.37646165
0.20632902 0.47385356 0.37512055
0.21869858 0.47837594 0.37450644
0.22194071 0.47708398 0.3794989
0.23373272 0.47838616 0.37066674
0.24412897 0.47184476 0.37242046
0.25406042 0.47978964 0.37308818
0.28634727 0.47440273 0.37572739
0.29550672 0.47994968 0.37390354
0.31495786 0.47666061 0.37066188
0.33548564 0.47653526 0.37556833
0.35549149 0.47734216 0.37455377
0.37801865 0.47562531 0.37048042
0.44032639 0.47993591 0.37172544
0.20136327 0.48094112 0.37369728
0.23908912 0.48071104 0.37831649
0.24580613 0.48282501 0.37472886
0.26741362 0.485416 0.3777343
0.27803546 0.48581952 0.37831676
0.2856397 0.48112622 0.37488413
0.3078312 0.48219734 0.3753227
0.32879958 0.48834482 0.37285224
0.33306956 0.48626202 0.37727392
0.35427576 0.48366454 0.37337974
0.36958116 0.48791975 0.37532994
0.37137553 0.4821673 0.37700322
0.39540723 0.48143163 0.37324491
0.41077685 0.48442331 0.37360814
0.43182841 0.48493564 0.37800717
0.44957572 0.48119938 0.37895182
0.4562667 0.48229319 0.37090331
0.46569613 0.48337826 0.37800887
0.48199782 0.48535976 0.37664226
0.4958362 0.48476341 0.37299919
0.503658 0.48357862 0.37847608
0.51403368 0.48366916 0.37188375
0.53379798 0.48340908 0.37116122
0.54187757 0.48180264 0.37640816
0.56666934 0.48887163 0.37794068
0.59379566 0.48844436 0.37996516
0.60769147 0.48600441 0.37335086
0.61471891 0.48251358 0.37740815
0.62971991 0.48925933 0.37087587
0.63014686 0.4808692 0.37111253
0.6626336 0.48179856 0.37345478
0.69466186 0.4856897 0.37437749
0.71928424 0.48404655 0.37054506
0.75941092 0.48631236 0.37313697
0.76612133 0.48083028 0.37626606
0.79932338 0.48692822 0.37418485
0.83975446 0.48636943 0.3740375
0.99041539 0.48967332 0.37587261
1.0388534 0.48645714 0.37235647
1.0530334 0.48125032 0.37723902
1.1027566 0.48789054 0.3722131
1.1188803 0.48265803 0.37745199
1.1709181 0.48868597 0.37114233
0.44460195 0.49234709 0.37506589
0.5846898 0.49005699 0.37449378
0.94241935 0.49145511 0.37788746
0.97464448 0.49327138 0.37013248
1.2533604 0.49221525 0.37179899
1.3680115 0.49001479 0.37820444
1.4736565 0.49354362 0.37831032
1.5877352 0.49574673 0.37668034
1.7007964 0.49369913 0.37087145
2.1038196 0.49839547 0.37877432
2.3133264 0.49971622 0.37343448
2.6546357 0.49316144 0.3793475
2.9930322 0.49533549 0.37298226
0.10494117 0.47256699 0.3862808
0.12512824 0.47122768 0.38607317
0.13838382 0.47304198 0.38423526
0.15654337 0.47661966 0.38445646
0.16410312 0.47363663 0.38463807
0.17720079 0.47743356 0.38787144
0.18171886 0.47432819 0.3814961
0.19607756 0.47228059 0.38576564
0.20241201 0.47210264 0.38955903
0.21699154 0.47462317 0.38542125
0.23606719 0.47787163 0.38729072
0.24287832 0.47593394 0.38372803
0.2516641 0.47763318 0.38279167
0.26086685 0.47594973 0.38212061
0.27458304 0.47759521 0.38691077
0.28212792 0.47662511 0.38337055
0.29731208 0.47559077 0.38879475
0.30647212 0.47282299 0.38651779
0.32436365 0.47813234 0.38715228
0.36970988 0.47914648 0.38828433
0.37927774 0.47583446 0.38437214
0.40822905 0.47985274 0.38439077
0.41408277 0.4782621 0.38947931
0.42447665 0.47917104 0.38510364
0.45199859 0.475595 0.38084477
0.46256003 0.47779453 0.38909626
0.47007236 0.47947627 0.38130662
0.53087091 0.47740436 0.38324064
0.2148947 0.48220727 0.38206556
0.23347127 0.48080105 0.38344207
0.2593281 0.48116603 0.38007858
0.27114558 0.4837662 0.38251099
0.28274283 0.48551294 0.38412991
0.2957122 0.4810119 0.38688809
0.30663353 0.48482192 0.38670349
0.31684178 0.4833855 0.38532996
0.32452592 0.48225054 0.38092235
0.34877232 0.48378968 0.38059214
0.35207346 0.48013732 0.38389325
0.36581373 0.48228931 0.38452184
0.37698844 0.48099926 0.38223734
0.3933472 0.48151922 0.38428229
0.40469876 0.48391324 0.38132191
0.41908899 0.48545146 0.38058287
0.43547177 0.48069206 0.38095748
0.44643912 0.48378876 0.3898387
0.49551076 0.48550645 0.38645995
0.51216722 0.48284173 0.38443428
0.53445786 0.48871136 0.38566005
0.55275512 0.48229855 0.38347211
0.57139766 0.48412725 0.38089526
0.5817886 0.48367691 0.38738823
0.59496939 0.48077011 0.3806704
0.62912363 0.48413992 0.38572472
0.65318096 0.48366737 0.38388056
0.68436623 0.48723263 0.38501021
0.71383137 0.4841809 0.38414481
0.7416932 0.48849782 0.38147464
0.81838083 0.48775357 0.38266978
0.82847899 0.483426 0.38716576
0.85825163 0.48614067 0.3818891
0.90529156 0.48668909 0.38261884
1.2034392 0.48866588 0.38108501
0.89913595 0.49392483 0.38013181
0.9623118 0.49020505 0.38552344
1.0166186 0.49040848 0.38540983
1.2898959 0.49224284 0.38227537
1.641399 0.49522707 0.38906962
1.7833446 0.49858788 0.38841763
1.9177188 0.49520013 0.38135317
3.6414444 0.49432948 0.38743502
0.13588849 0.47204262 0.39601275
0.14837573 0.47824278 0.39097404
0.16330883 0.47145939 0.39100075
0.17693189 0.47630006 0.39518589
0.1891374 0.47649127 0.39544836
0.21192691 0.47619176 0.39127812
0.22992317 0.47721672 0.39179084
0.23506528 0.47931847 0.39970896
0.24433382 0.47762841 0.39954647
0.26496005 0.47224331 0.39426586
0.2788417 0.47278214 0.39236161
0.29108301 0.47498477 0.39442915
0.32806766 0.47937837 0.39779758
0.33570713 0.47780961 0.39291275
0.35170141 0.47919077 0.39656776
0.36346203 0.47470152 0.39528182
0.37578231 0.47854108 0.39414838
0.40197358 0.47933233 0.39204952
0.42112765 0.47781485 0.39560333
0.45008248 0.47936743 0.39278904
0.47065175 0.4774138 0.3954182
0.48652062 0.4785409 0.39370126
0.51161051 0.47920677 0.39815715
0.52521586 0.47752589 0.39357105
0.54228228 0.47850987 0.39093769
0.58720917 0.47928512 0.39077538
0.17252778 0.48053274 0.39418009
0.22551614 0.48021108 0.39906344
0.24211657 0.48142415 0.39625925
0.25181389 0.4804337 0.39648935
0.26511753 0.48468399 0.39671326
0.28951666 0.48040587 0.39249486
0.34690773 0.4809154 0.39160377
0.36382946 0.48703977 0.39564928
0.3921746 0.48286223 0.39639866
0.43704349 0.4802109 0.39564848
0.48470142 0.48502979 0.39233038
0.52607191 0.48654574 0.39417043
0.56298119 0.48204947 0.390113
0.57676202 0.48434418 0.3990624
0.63691795 0.48087379 0.39022475
0.67488158 0.48485789 0.3959094
0.68130106 0.48007697 0.39946777
0.70449787 0.48656681 0.3957144
0.7717284 0.48741838 0.39612377
0.79783583 0.48932645 0.39105478
0.85093832 0.48539698 0.3971653
0.8784765 0.48643973 0.39047405
0.8996079 0.48680326 0.39944381
0.92749196 0.48709992 0.39158836
0.98053586 0.48783535 0.392519
1.0333236 0.48656958 0.39148995
1.0981007 0.48835805 0.39275697
1.1600236 0.4867397 0.39082029
1.2351426 0.48775983 0.39077771
0.62006199 0.49059364 0.39574754
0.74231416 0.4924418 0.39865753
0.76184452 0.49113843 0.39130309
1.3265247 0.49164042 0.39277855
1.4216043 0.49342674 0.39256456
1.5305741 0.49598423 0.39250144
2.0106366 0.49826354 0.39941457
2.4181621 0.49821243 0.39003879
3.2081423 0.49892557 0.39939445
0.11675603 0.47225076 0.40213567
0.13487266 0.47275206 0.40611506
0.14819571 0.47194716 0.40852052
0.15367025 0.47400719 0.40344709
0.16413273 0.47441721 0.40975767
0.18380298 0.47804153 0.40082896
0.19397171 0.47598153 0.40454036
0.2007775 0.47376743 0.40157008
0.22920567 0.47568828 0.4049679
0.23809439 0.47326916 0.40437341
0.24770829 0.47593799 0.40454933
0.25338635 0.47680736 0.4057886
0.26018992 0.47158921 0.40845156
0.27406001 0.4795534 0.40654302
0.28576675 0.47651404 0.40580273
0.29808986 0.47781494 0.40308186
0.3019278 0.47571036 0.40782136
0.32366812 0.47764927 0.40629953
0.34845912 0.47484189 0.4065876
0.3570247 0.47803581 0.40208018
0.39020738 0.47953328 0.40807852
0.40637797 0.47489628 0.40964353
0.44721872 0.47439879 0.40418649
0.46603674 0.47870937 0.40570852
0.47813556 0.47629943 0.4012652
0.51738411 0.47593701 0.40235192
0.53649521 0.47862425 0.40146893
0.56457496 0.47955358 0.40597433
0.30726641 0.4825511 0.40065786
0.31490213 0.48138896 0.40291011
0.3346566 0.48043576 0.40511534
0.35142118 0.48657253 0.40976399
0.38793656 0.48489276 0.40588561
0.40437156 0.48466158 0.40777248
0.41525894 0.48190629 0.40401167
0.44973052 0.48495546 0.40629414
0.46611291 0.48693463 0.40577021
0.49933943 0.48191848 0.40336093
0.56481063 0.4882392 0.40613323
0.58566725 0.48262426 0.40484551
0.60555428 0.4843542 0.40223867
0.61678714 0.48385343 0.40925774
0.63260752 0.48202032 0.40328565
0.66356146 0.48581442 0.4056074
0.69993806 0.4829587 0.40979844
0.72240895 0.48396745 0.40523785
0.73126149 0.48009697 0.40994486
0.75501454 0.48590729 0.40512872
0.79122138 0.48898834 0.40563115
0.86603922 0.48316824 0.40388864
0.91744697 0.48517239 0.40701604
0.9523173 0.48832223 0.40161845
0.96442926 0.48324946 0.40651202
1.0091435 0.48975071 0.40350047
1.0587852 0.48611915 0.40075719
1.124764 0.48731169 0.40193787
0.51702714 0.4922576 0.40209255
0.631459 0.4900113 0.40259555
0.82081896 0.49233603 0.40177199
1.2075927 0.4924354 0.4062764
1.2895925 0.49424094 0.40742472
1.3779078 0.49521759 0.40751237
1.4716504 0.49476704 0.40597439
1.5810961 0.49556339 0.40509799
1.6970581 0.49428028 0.40191951
1.8518332 0.49853477 0.40297532
2.8325086 0.49759626 0.40434593
0.11449778 0.47168151 0.41753906
0.12707521 0.47165456 0.41160151
0.14319295 0.4717285 0.41504151
0.16656187 0.47310778 0.41521364
0.19134563 0.47240615 0.41563225
0.20761721 0.47703499 0.41390926
0.21730827 0.47649688 0.41536009
0.22778781 0.47323772 0.41767511
0.23745331 0.47588271 0.41816688
0.24570526 0.47564289 0.41609311
0.25605825 0.47514746 0.41692865
0.26818761 0.47733885 0.41987348
0.27671045 0.47319245 0.41726506
0.30622923 0.47420898 0.41313317
0.31640601 0.47604513 0.41155002
0.32921064 0.47347811 0.41267547
0.34541953 0.47885525 0.41706875
0.35834956 0.47945851 0.41719377
0.37036887 0.47863978 0.41589847
0.45814782 0.47702017 0.41335711
0.47280064 0.47698605 0.41118583
0.53767836 0.47629952 0.41709653
0.62078887 0.47800466 0.4117583
0.22370768 0.48088792 0.41088462
0.26322126 0.48472324 0.41278079
0.34128261 0.48135513 0.41247424
0.36817101 0.48392493 0.41362253
0.3845894 0.488199 0.41640919
0.40250307 0.48548099 0.41995233
0.43495446 0.48744422 0.41462278
0.44605386 0.4833867 0.41727138
0.50167787 0.4895702 0.41965845
0.51093328 0.4839018 0.41209751
0.53388155 0.48152331 0.41433799
0.55124497 0.48227498 0.41179681
0.57684261 0.48057887 0.41424894
0.60405111 0.483428 0.41678414
0.67762136 0.48165992 0.41372487
0.80033988 0.48441255 0.41007853
0.84583277 0.48593235 0.41343611
0.88199973 0.48109907 0.41099474
1.0335273 0.4892914 0.41286048
1.0492924 0.48474458 0.4189122
1.086071 0.4859457 0.41068843
1.1612654 0.48956868 0.41450632
0.66027296 0.49231184 0.41990873
0.83983618 0.49274451 0.41063985
1.2355579 0.49012816 0.41536286
1.3260508 0.49358046 0.41857111
1.4211746 0.49526343 0.41991895
1.5190383 0.49440938 0.41867194
1.92617 0.49864271 0.41877609
2.1027861 0.49949983 0.41732663
2.2930458 0.49691528 0.41214001
2.5542657 0.50044608 0.41159552
0.13779068 0.47075596 0.42086294
0.155159 0.47686395 0.42575526
0.16608131 0.47247452 0.42320484
0.17646965 0.47490782 0.42517209
0.19594152 0.47523928 0.42465219
0.21414357 0.47522211 0.42568311
0.22288914 0.47612727 0.42502645
0.24227566 0.47312918 0.42588425
0.25094777 0.47729617 0.42416587
0.27293381 0.47737154 0.42665175
0.28157067 0.47315925 0.42395455
0.29595095 0.47770035 0.42867878
0.30791473 0.47802964 0.42957339
0.31668729 0.47744092 0.4260478
0.32736525 0.47950709 0.4246107
0.34904426 0.47563222 0.42109445
0.35522056 0.47556269 0.42795393
0.37574685 0.47715044 0.42146754
0.39429709 0.47934061 0.42611688
0.43681735 0.47637737 0.42342299
0.45379552 0.47888941 0.42400107
0.47334933 0.47522554 0.42611271
0.49209234 0.47834617 0.42680794
0.82827431 0.47999758 0.42370307
0.26387581 0.48085958 0.42851868
0.28986335 0.4841491 0.42060024
0.29401326 0.48265657 0.42610741
0.30312711 0.48283473 0.42344549
0.34164247 0.48220339 0.42697665
0.36727607 0.48256963 0.42676628
0.38902774 0.48534358 0.42084756
0.40870982 0.48431593 0.42594612
0.41898069 0.48049679 0.42139575
0.43510738 0.48270744 0.42188334
0.47658235 0.48647887 0.4288255
0.49286285 0.48733917 0.42743188
0.50865448 0.48743871 0.42510921
0.51174319 0.48178861 0.42752236
0.52901697 0.48273376 0.42572457
0.56677395 0.48618904 0.4226703
0.57618207 0.48496971 0.42925799
0.59127659 0.48296881 0.4239848
0.62111318 0.48273307 0.42786437
0.63863438 0.4817507 0.42290944
0.67069036 0.48126131 0.42616814
0.69003046 0.48063272 0.42088929
0.73594791 0.48676428 0.42975903
0.78436589 0.48863789 0.42008397
0.79659498 0.48584691 0.42631498
0.82317954 0.48714596 0.42121822
0.87067741 0.48875919 0.42502135
0.91635275 0.48770639 0.42628968
0.94883382 0.48961666 0.42033896
0.9710393 0.48920059 0.42976463
1.0030859 0.48984557 0.42213029
1.0161299 0.48450828 0.42740041
1.1116723 0.4845981 0.42000654
0.52785748 0.49019641 0.42485082
0.72866195 0.4917044 0.42572036
0.76673716 0.49178451 0.42880762
1.1961045 0.49051714 0.42650238
1.2762017 0.49178362 0.42856884
1.7783484 0.49890175 0.42068687
2.6633062 0.49568611 0.42886585
2.9930184 0.49626762 0.42690408
3.4008934 0.49576312 0.42306131
0.1496239 0.47176394 0.4317947
0.15803733 0.47322994 0.43287939
0.18426271 0.47445643 0.43593651
0.19551431 0.47378048 0.43538496
0.2096093 0.47546679 0.43395039
0.21279053 0.47438166 0.43993342
0.22199762 0.47180021 0.43985221
0.25650907 0.47537726 0.43272948
0.26649511 0.47741264 0.43240193
0.27812004 0.47797585 0.43405843
0.28775153 0.47504222 0.43246177
0.29920071 0.47473007 0.43299136
0.30244172 0.47169974 0.43729231
0.31170574 0.47563592 0.43442565
0.33921298 0.47964239 0.4387303
0.37418634 0.47894555 0.43417662
0.39088097 0.47884765 0.43713939
0.40007517 0.47386473 0.43189496
0.41546276 0.4755486 0.43246737
0.42635572 0.47557646 0.43557125
0.43446085 0.47248498 0.43583122
0.44803655 0.47955862 0.43352479
0.4838078 0.47669944 0.43488839
0.5187127 0.47945967 0.43296754
0.54521078 0.47927478 0.43792745
0.58005804 0.47934443 0.43197197
0.77753729 0.4787913 0.43455014
0.23562893 0.4806748 0.43072495
0.33667186 0.4842304 0.43570191
0.34721434 0.48153847 0.43338636
0.39031222 0.48625827 0.43655044
0.41663292 0.48488149 0.43359736
0.43458623 0.48887324 0.43594813
0.46464595 0.4812665 0.4334332
0.50340652 0.48016688 0.43597001
0.54210025 0.48521531 0.43558353
0.55840445 0.4846437 0.43215492
0.601547 0.48195297 0.43091226
0.66429311 0.48134336 0.43894279
0.69196886 0.4860518 0.43895355
0.71769649 0.48893186 0.43686229
0.72259903 0.48262176 0.43969274
0.74321365 0.48171306 0.43378651
0.77963167 0.48963723 0.43566373
0.8128438 0.48504201 0.43459418
0.85938615 0.48630798 0.43887731
0.88160962 0.48409092 0.43011916
1.0421031 0.48445675 0.43789425
1.1426308 0.48486024 0.4312745
1.3052057 0.48870906 0.43799281
0.94668692 0.491696 0.43979535
1.0920802 0.49104616 0.43533689
1.2328334 0.49150681 0.43914914
1.3662421 0.49349102 0.43085882
1.4580926 0.49256906 0.43050498
1.6974769 0.49609998 0.43411502
