# .PCD v0.7 - Point Cloud Data file format
VERSION 0.7
FIELDS x y z
SIZE 4 4 4
TYPE F F F
COUNT 1 1 1
WIDTH 985
HEIGHT 1
VIEWPOINT 0 0 0 1 0 0 0
POINTS 985
DATA ascii
-1.5258203 -2.3331819 -1.2968527
-1.3510113 -2.3287585 -1.2733967
-1.3029679 -2.3266964 -1.2711481
0.34512022 -2.3424177 -1.2468339
-0.95742983 -2.3315303 -1.2346137
0.36566117 -2.3390157 -1.2390575
-0.88094574 -2.3392401 -1.2212591
-0.91648769 -2.329277 -1.2250314
-0.78262979 -2.3396637 -1.2143073
-0.7218318 -2.3333447 -1.2112782
-0.8152793 -2.3251798 -1.2176799
-0.6854139 -2.3311076 -1.1971614
-0.59837663 -2.3445227 -1.1864082
-0.52084094 -2.33847 -1.1856016
-0.54357809 -2.3438423 -1.1797869
-0.48999155 -2.3428667 -1.1710484
-0.46736124 -2.3366005 -1.1755065
0.54990506 -2.3395092 -1.1679181
0.60035342 -2.3341036 -1.1688333
-0.366622 -2.3451962 -1.1561328
-0.34304973 -2.3282905 -1.1530999
0.56161273 -2.3470085 -0.90254796
0.53358316 -2.3482945 -0.89207375
0.56349623 -2.3488183 -0.87272418
0.536681 -2.3502815 -0.83296895
0.56346166 -2.3462131 -0.81194425
0.54954672 -2.3470449 -0.7927919
0.64698911 -2.3513148 -0.77823776
0.53608745 -2.3495119 -0.77426684
0.52075714 -2.3503406 -0.72700667
5.8602972 -2.3408303 -0.72503811
0.53168583 -2.3450191 -0.71598727
0.50604188 -2.3474324 -0.70747882
0.55599135 -2.3475573 -0.69707668
0.54178149 -2.3512444 -0.68014205
0.55318642 -2.3515897 -0.67033011
6.3885078 -2.3569686 -0.67616302
0.48935741 -2.347846 -0.66180938
0.53761089 -2.3503475 -0.65241247
0.52146733 -2.3460281 -0.63384145
0.55731273 -2.3425617 -0.63055563
0.53228188 -2.3473365 -0.62460041
0.5171386 -2.3484814 -0.60778213
0.68114877 -2.3437388 -0.6004771
0.50202256 -2.3494129 -0.59099406
0.53815573 -2.353039 -0.58964688
0.63561243 -2.3443224 -0.58205211
0.48595697 -2.34535 -0.57315141
6.5528178 -2.3493123 -0.57721925
0.55594283 -2.3462219 -0.56812739
0.50551206 -2.348983 -0.55584335
0.53947628 -2.3461998 -0.55222577
0.48153323 -2.352936 -0.54929209
0.63886029 -2.352463 -0.54565829
0.51457095 -2.3484228 -0.54639071
0.48830172 -2.341819 -0.53802156
0.64625251 -2.3463008 -0.53261256
0.50646847 -2.3445439 -0.52035058
0.53114659 -2.34255 -0.5259921
0.4827798 -2.3492255 -0.51459962
0.52449536 -2.3492255 -0.50236863
0.63530076 -2.3415089 -0.50581515
0.50014079 -2.3519793 -0.49707878
0.5328719 -2.349664 -0.49274111
0.50881875 -2.3543324 -0.48825336
0.49112993 -2.3496165 -0.47232625
0.54783046 -2.3448191 -0.4719438
0.4991762 -2.3510234 -0.4634499
0.63384229 -2.3445835 -0.46963209
6.5496387 -2.3448043 -0.4611344
0.50626385 -2.3485861 -0.45373124
0.51463902 -2.3529046 -0.44506589
0.52183384 -2.3524158 -0.43540606
0.48892617 -2.3475013 -0.43918321
0.54461098 -2.3422229 -0.43747547
0.52951002 -2.3548286 -0.42609611
0.63727748 -2.3451765 -0.42206153
0.50890052 -2.3421707 -0.4105657
0.53423113 -2.3447251 -0.414592
0.51823777 -2.3542604 -0.4029721
0.54223722 -2.3500507 -0.40548956
0.52451807 -2.3528385 -0.39308244
0.54723012 -2.3428605 -0.39427507
0.47548345 -2.3519592 -0.38538414
0.55538166 -2.350136 -0.38517782
0.63072449 -2.343184 -0.38664895
0.5125013 -2.35305 -0.37085018
0.53506255 -2.343267 -0.37198243
0.48690569 -2.3471549 -0.36674598
0.51719636 -2.3468075 -0.36037999
0.54258174 -2.3496063 -0.36288905
0.47041905 -2.3551681 -0.3552019
0.67838418 -2.3533838 -0.35059679
0.49258113 -2.3457396 -0.35741386
0.5475288 -2.3453324 -0.35216522
0.49789888 -2.3433654 -0.34784806
0.52838838 -2.3450069 -0.34066448
0.50592804 -2.3545871 -0.33998528
0.53276467 -2.3397677 -0.33009183
0.48661736 -2.351923 -0.32791865
0.5395847 -2.3461578 -0.32091311
0.46833864 -2.3539162 -0.31649685
0.52135694 -2.3514507 -0.31080928
0.51413876 -2.3421345 -0.31933817
0.54450136 -2.344815 -0.31064275
0.52696192 -2.353987 -0.30131686
0.47163942 -2.3447368 -0.30656627
0.49511337 -2.3423626 -0.30835384
0.67201656 -2.3464704 -0.30283698
0.53112501 -2.3507133 -0.2910513
0.62775546 -2.3553159 -0.29779789
0.67824799 -2.3509514 -0.29088727
0.50343502 -2.3466506 -0.29480964
0.54835576 -2.3396115 -0.29983076
0.51168329 -2.3519347 -0.28114524
0.63279146 -2.3559639 -0.28618693
0.48143899 -2.3449256 -0.28868243
0.51510638 -2.3467224 -0.27096087
0.52089357 -2.3531909 -0.26191449
0.49494806 -2.3448122 -0.26112899
0.47524813 -2.3446455 -0.25152069
0.50010514 -2.3493459 -0.25222066
0.52377385 -2.3470311 -0.25150228
0.54190826 -2.3380554 -0.25957626
0.5049209 -2.3529177 -0.24310842
-0.13172865 -2.3485525 -0.24170916
-0.11137462 -2.3445036 -0.24812968
-0.10607079 -2.340282 -0.24914092
0.47961339 -2.3462598 -0.24266523
0.5264746 -2.3408837 -0.24105811
-0.089780726 -2.3523242 -0.23351911
0.53310841 -2.3532238 -0.23224707
0.50773203 -2.3477325 -0.23310237
-0.093994282 -2.3366911 -0.23043089
-0.11375975 -2.3536098 -0.22657846
0.48931801 -2.3563604 -0.22528608
0.55695486 -2.3507383 -0.2299215
0.51162463 -2.3484066 -0.22356707
0.53569657 -2.3480742 -0.2217612
-0.09886916 -2.3389285 -0.22935461
-0.092187032 -2.3503036 -0.21099563
-0.087715767 -2.3500504 -0.21219674
-0.136227 -2.3421261 -0.21647307
-0.073888786 -2.3403745 -0.21442404
0.51347417 -2.3403237 -0.21323083
0.53810698 -2.3429372 -0.21124583
-0.13145819 -2.3378601 -0.21790594
0.48945683 -2.3394625 -0.2146107
0.49606657 -2.3547955 -0.20654868
-0.11386336 -2.3456833 -0.20339692
0.54144317 -2.3426752 -0.20108441
-0.10486468 -2.3381777 -0.20562384
0.63861865 -2.3523285 -0.19552463
-0.13911326 -2.3474855 -0.19295081
-0.076715045 -2.3480837 -0.19330709
0.49748391 -2.3457339 -0.19646025
0.52195454 -2.3485558 -0.19437392
0.59045804 -2.3444185 -0.19367787
2.6934083 -2.3438549 -0.1914805
0.59496266 -2.3500042 -0.18300648
0.61775261 -2.3551371 -0.1895414
-0.10491714 -2.3429716 -0.18421169
0.4769057 -2.3453722 -0.18897039
0.52415586 -2.3444092 -0.18421432
0.54940569 -2.3499687 -0.18112691
0.49934033 -2.3396139 -0.18658723
-0.081748351 -2.3529165 -0.17095062
0.52941465 -2.3548911 -0.17501503
0.62075001 -2.3549273 -0.17797633
0.64539838 -2.3548129 -0.17180237
-0.077658609 -2.3427026 -0.17107911
0.47966588 -2.3441319 -0.17981277
0.48188207 -2.3409481 -0.17047875
-0.14323264 -2.3501017 -0.16769557
-0.10020819 -2.3542931 -0.16501151
-0.085488498 -2.3531811 -0.16986819
0.036310583 -2.356591 -0.16180028
0.60201186 -2.3554065 -0.1609849
-0.10686753 -2.3429399 -0.16125596
-0.09628316 -2.347039 -0.16569605
0.032008115 -2.3481147 -0.16292258
0.48533654 -2.3446245 -0.161539
0.53064519 -2.3478475 -0.16456375
-0.1389394 -2.338815 -0.16867945
0.041402131 -2.3517313 -0.15933463
0.62542009 -2.3516495 -0.15451241
0.67214775 -2.3524089 -0.15222543
0.48825198 -2.3463578 -0.15240769
0.5531292 -2.3417568 -0.15985738
0.65088248 -2.3554232 -0.14770536
-0.14379737 -2.3447051 -0.1426034
-0.09390074 -2.3440418 -0.1441997
-0.084077053 -2.3446727 -0.14773604
0.46684664 -2.3438399 -0.1462698
0.49082187 -2.347126 -0.14316218
0.53454089 -2.3425689 -0.14416249
0.60737336 -2.3569896 -0.13845721
0.65214854 -2.3514121 -0.13535124
0.67426825 -2.3512909 -0.13965088
-0.051167723 -2.3463027 -0.13518628
0.038579002 -2.3418956 -0.13720965
0.045241423 -2.3440213 -0.1332044
0.46988213 -2.3475497 -0.1375514
0.51284546 -2.3404515 -0.13875322
0.042687971 -2.3390932 -0.13461599
-0.090339594 -2.3458622 -0.12361906
-0.084509127 -2.3449252 -0.12575722
0.47162098 -2.3453932 -0.1284748
0.49551785 -2.3487024 -0.12452211
0.51689696 -2.3490548 -0.12945786
0.53952664 -2.3451385 -0.12403595
-0.15009086 -2.3525198 -0.11368144
-0.046982445 -2.3529429 -0.11546376
-0.050958235 -2.3443358 -0.11403578
0.47485241 -2.3420999 -0.11028902
0.49682882 -2.345598 -0.11496025
0.54232919 -2.3488798 -0.11400452
0.47869441 -2.3527226 -0.10163517
0.59090716 -2.3550954 -0.10063004
0.63422436 -2.352016 -0.10749082
-0.091570809 -2.3478699 -0.10082662
-0.082940444 -2.3497074 -0.10468592
0.042671628 -2.3493772 -0.10959005
0.050986931 -2.3438497 -0.10072078
0.5425356 -2.3419158 -0.10347784
0.51883465 -2.3399415 -0.10943764
-0.10003951 -2.3501134 -0.09681832
-0.095465451 -2.3543768 -0.099476956
-0.044729002 -2.3526719 -0.094864167
0.055722505 -2.3549399 -0.095321171
0.50266874 -2.3570359 -0.09644822
0.63716239 -2.3567295 -0.095810123
0.65894771 -2.3548777 -0.098871849
-0.10426053 -2.3408952 -0.093779467
-0.097502343 -2.345757 -0.097794697
-0.051850479 -2.3494527 -0.093063995
-0.045804095 -2.3468142 -0.094241619
0.053368021 -2.3486252 -0.098073527
0.47808567 -2.3418002 -0.092113569
0.54501134 -2.3456838 -0.093360864
-0.15405503 -2.3527491 -0.082059547
-0.087624729 -2.3534698 -0.080343343
0.52725977 -2.3571262 -0.080364317
0.54910791 -2.35726 -0.08343488
0.63837123 -2.3556609 -0.083866253
-0.082137778 -2.345582 -0.082426473
0.4810594 -2.3495102 -0.083231874
0.50146943 -2.3441904 -0.086464509
-0.1030848 -2.3517261 -0.07126499
-0.09370809 -2.3546205 -0.077204958
-0.089678362 -2.3538449 -0.079322591
-0.05448861 -2.3520184 -0.071272478
-0.044563137 -2.3566172 -0.074079819
0.55014789 -2.3561833 -0.073033787
-0.10076112 -2.3403087 -0.071970902
-0.095837831 -2.3438578 -0.0751836
-0.052375734 -2.345737 -0.071536273
0.48192102 -2.347434 -0.073992372
0.52546519 -2.3433557 -0.07000313
-0.053189836 -2.3388972 -0.070910804
0.48520634 -2.3581107 -0.065059967
0.50352317 -2.3420157 -0.067308992
-0.045394398 -2.3520138 -0.052626573
0.48478425 -2.3511624 -0.05565666
0.50762701 -2.3565989 -0.058057532
-0.094049528 -2.3452935 -0.052247703
-0.051732592 -2.3472424 -0.050632335
0.52674991 -2.3402624 -0.050006654
0.54970515 -2.3453012 -0.05201498
0.63685036 -2.3410079 -0.059639197
-0.049170226 -2.3387802 -0.051013827
0.64185679 -2.3564012 -0.048022043
0.6627363 -2.3506949 -0.049482077
2.4842212 -2.3543568 -0.044147603
-0.098154292 -2.3412778 -0.048981771
0.50537407 -2.3418515 -0.048136514
-0.048903968 -2.3560975 -0.030904775
-0.037680127 -2.3566246 -0.03386021
-0.026018208 -2.3554072 -0.035814375
0.081372388 -2.357873 -0.0311749
0.48666495 -2.3529854 -0.037169971
0.6198414 -2.3550997 -0.03483963
-0.046271373 -2.3443921 -0.031293441
-0.024100963 -2.3474045 -0.035796985
1.0106448e-16 -2.3447404 -0.032370292
0.52911806 -2.3450344 -0.03008502
0.64021617 -2.3476598 -0.035907425
0.6629104 -2.3487196 -0.03709678
-0.010856129 -2.3573978 -0.020652045
-0.0071708364 -2.3559895 -0.022720149
0.081612065 -2.3546915 -0.028964426
0.6210646 -2.35797 -0.023258531
-0.11807227 -2.3417058 -0.026014864
-0.053264763 -2.3449728 -0.029019207
-0.0075586839 -2.3469181 -0.022677839
0.019409057 -2.3412485 -0.02357012
0.081766166 -2.3454485 -0.025607973
0.48618925 -2.3480377 -0.027835218
0.55169362 -2.3461316 -0.020836042
0.64044559 -2.3466599 -0.023935331
0.66368282 -2.349649 -0.024746791
-0.040063225 -2.3512588 -0.013273493
-0.034078445 -2.3553774 -0.014474975
-0.024273872 -2.3566196 -0.015789099
-0.017071506 -2.3527856 -0.016278638
0.019995164 -2.352875 -0.019269861
0.62084782 -2.3560131 -0.011622298
0.66665816 -2.3592646 -0.01242192
-0.043168809 -2.3436153 -0.012354538
-0.037371479 -2.3457906 -0.013672322
-0.024494123 -2.3447077 -0.015478175
-0.014795118 -2.3430562 -0.017832015
0.02045403 -2.3478141 -0.013132712
0.50741106 -2.3436637 -0.019289661
0.52868146 -2.3400981 -0.010013527
0.55149597 -2.3441622 -0.010411756
-0.12558717 -2.3517179 -0.0014067739
-0.062161427 -2.3526163 -0.0024734291
-0.020078177 -2.350822 -0.0031358975
-0.015265214 -2.3567274 -0.0033157435
0.46683851 -2.3570485 -0.0089340545
-0.12471001 -2.3479629 -0.0084037697
-0.061478581 -2.3434901 -0.0029359537
-0.056236655 -2.3431404 -0.0073741875
-0.038625456 -2.3449132 -0.0012515998
-0.020972952 -2.3432753 -0.0038054138
-0.016464956 -2.3476968 -0.0034000888
-0.031479884 -2.3556743 0.002157612
-0.017437324 -2.3547175 0.0043217828
0.48837706 -2.3558223 0.0093100118
0.61969048 -2.3511653 0
-0.08174029 -2.3403733 0.0073022977
-0.051396426 -2.3445992 0.009835504
-0.04032369 -2.3481691 0.00084215694
-0.033953559 -2.3443038 0.0019578165
-0.021933919 -2.3438334 0.0038508936
-0.018052381 -2.3432891 0.0070651202
0.46481073 -2.3462439 0
0.48705587 -2.3489561 0
0.50855201 -2.3475492 0
0.55157995 -2.3441553 0
-0.073134989 -2.3551824 0.018722955
-0.022724375 -2.3532109 0.015849341
-0.015528798 -2.3532398 0.017329942
0.041099083 -2.3544614 0.016575256
0.53257674 -2.3576713 0.01008152
-0.1867727 -2.343905 0.016184043
-0.076165736 -2.3444054 0.015214481
-0.048478104 -2.3472118 0.010937378
-0.023193333 -2.3478348 0.015686763
-0.01566899 -2.3453579 0.015349606
0.041111529 -2.3401906 0.013550977
0.61884505 -2.3482678 0.011587339
-0.010996161 -2.3554132 0.020539794
-0.007734695 -2.3536875 0.022496341
1.104482e-16 -2.3560381 0.029522656
0.46665081 -2.3590665 0.02681125
0.55416656 -2.3568494 0.0209224
0.66528523 -2.3554308 0.02480275
-0.057028748 -2.341579 0.027455602
-0.010323491 -2.3434098 0.021090332
-0.0073758885 -2.346817 0.022713374
1.204538e-16 -2.3412843 0.025102384
0.039379697 -2.3437593 0.028208811
0.040233433 -2.3431764 0.022424966
0.50640166 -2.3407636 0.028894503
0.5290888 -2.3430476 0.020046666
0.61681074 -2.3415112 0.023109982
-0.082322247 -2.35726 0.036612421
7.6360497e-17 -2.3549075 0.038250666
0.46596259 -2.3581328 0.035722319
-0.085821293 -2.3464186 0.033354897
-0.030945169 -2.348701 0.034868706
-0.02725248 -2.3433378 0.035229083
9.1560046e-17 -2.342119 0.034631047
0.037977576 -2.3405275 0.035211854
0.48467612 -2.3431861 0.037030898
0.5068984 -2.3457024 0.038584828
0.55037481 -2.3422685 0.031199038
0.61759108 -2.3463864 0.034721695
-0.10010466 -2.3557792 0.048352595
-0.070890315 -2.3500419 0.04310964
-0.066372097 -2.3533463 0.04540778
5.4370383e-17 -2.3548212 0.041693535
-0.098236769 -2.3432751 0.049046207
-0.069290102 -2.3416297 0.043512933
-0.057848819 -2.3445826 0.048462026
5.308957e-17 -2.3454852 0.041710958
0.50682396 -2.3486984 0.048263356
0.55090958 -2.347188 0.041662391
-0.19984788 -2.3590279 0.051028747
-0.095160782 -2.3545153 0.052059837
-0.086817198 -2.3534677 0.057531547
0.52955288 -2.3529544 0.050251883
0.59599626 -2.3547127 0.056064922
-0.19761288 -2.3463266 0.053393006
-0.1510978 -2.3433943 0.051440243
-0.14587584 -2.3458178 0.059043862
-0.094770893 -2.3440194 0.051720042
-0.086345792 -2.3421721 0.057062548
-0.026677154 -2.3491039 0.056093834
0.48339632 -2.3443029 0.055510782
0.50473225 -2.3429048 0.057753276
-0.090944 -2.3398328 0.054116726
-0.073214285 -2.3502882 0.064365052
-0.064206831 -2.3555589 0.068285584
0.049341496 -2.3557198 0.066254571
0.050069489 -2.3582406 0.064811744
0.52973992 -2.3579109 0.060381692
0.55124301 -2.3560944 0.062641755
0.59499544 -2.3547878 0.06724032
-0.14426118 -2.3432119 0.060789231
-0.1065303 -2.3486385 0.068651192
-0.075307392 -2.3431354 0.062966585
-0.065740995 -2.3442469 0.067057475
0.0073992168 -2.3497832 0.061286736
0.05107699 -2.344322 0.061575431
0.50455493 -2.3469062 0.067435682
-0.10143965 -2.3562787 0.072673537
-0.091591112 -2.351234 0.078134038
0.4831056 -2.3533137 0.074158855
0.50524992 -2.3558121 0.077271037
0.55059445 -2.3581321 0.073088616
-0.10273945 -2.3437412 0.070919648
-0.096151501 -2.3427496 0.074976176
0.52529228 -2.3453593 0.07502187
0.63655323 -2.343981 0.071608216
0.03665046 -2.3547335 0.0868508
0.50311232 -2.3520157 0.086724713
-0.20453106 -2.3438785 0.083784208
-0.074575506 -2.3450737 0.08554934
-0.06677644 -2.3438034 0.088364691
0.013169751 -2.3435748 0.081607156
0.034706611 -2.3450239 0.088761359
0.54598927 -2.3436189 0.082996577
-0.10265103 -2.3569765 0.095925324
-0.097871363 -2.3547351 0.09830261
0.033945888 -2.3556755 0.09001226
0.057965558 -2.3582838 0.09239538
0.52567244 -2.356266 0.090297893
-0.11118269 -2.3460867 0.090039365
-0.10433433 -2.3428946 0.093872055
0.031450007 -2.3443573 0.092151538
0.058757536 -2.3477297 0.090577342
0.47867468 -2.3447402 0.09221743
0.50103068 -2.3492107 0.096159399
0.52200776 -2.3466325 0.099858224
0.54412258 -2.3417861 0.0932201
0.61428678 -2.3604326 0.10433301
-0.21363485 -2.3586357 0.1096475
-0.07537169 -2.3537729 0.10782998
0.63396871 -2.3510501 0.10745034
-0.11997899 -2.3427408 0.1085134
-0.091475308 -2.345376 0.10068069
-0.083898991 -2.3418941 0.1036668
-0.075104728 -2.3457956 0.10731751
-0.069986373 -2.3491993 0.10930242
0.4781073 -2.3497829 0.10152104
0.49941257 -2.349354 0.10566238
-0.11426805 -2.3577313 0.11321804
-0.10463894 -2.3524842 0.11782692
0.029616248 -2.350431 0.11916408
0.034392353 -2.3566446 0.11640447
0.49825239 -2.3524451 0.11526284
0.5440957 -2.3566747 0.1143479
0.58918375 -2.3552251 0.11170316
0.63262957 -2.3531117 0.11936383
-0.20771928 -2.3465624 0.11494475
-0.10558073 -2.3436947 0.11653526
0.030879799 -2.3437037 0.11815346
0.0413559 -2.3460562 0.11060166
0.47485241 -2.3420999 0.11028902
0.51741898 -2.3420508 0.11933682
-0.16560748 -2.3585713 0.12866566
-0.094921529 -2.3543181 0.12238272
-0.075855277 -2.3513694 0.12926419
0.47297511 -2.3522525 0.12881242
-0.083088681 -2.3461051 0.12638035
-0.078750834 -2.3486609 0.12809786
0.056374934 -2.3462327 0.12454996
0.51542073 -2.3422208 0.12911706
0.58585602 -2.3495464 0.12246528
-0.21797395 -2.3595631 0.13717347
0.03710255 -2.3552825 0.13865736
0.040546373 -2.3591528 0.13694398
0.60688347 -2.3550532 0.13835309
0.63211071 -2.35905 0.13145629
-0.11306977 -2.3484271 0.13637201
-0.054297134 -2.3465466 0.13456421
0.46930438 -2.34461 0.13739659
0.51326549 -2.3424041 0.13885795
0.53744298 -2.3453085 0.13420129
0.58283281 -2.3458219 0.13324097
0.58435351 -2.3615165 0.14503144
-0.081253946 -2.3593376 0.14999957
0.0284828 -2.3543415 0.14258811
0.032841492 -2.3564632 0.14082941
0.49283013 -2.3569076 0.14370029
0.62835115 -2.3534114 0.14291619
-0.17660853 -2.3447595 0.14479282
-0.1002686 -2.3421535 0.14153145
-0.09380386 -2.3415513 0.14400455
-0.087295651 -2.3419635 0.14642227
0.030084502 -2.3435979 0.14143568
0.60283202 -2.3484461 0.14929754
-0.17073533 -2.3511901 0.15018031
-0.12113537 -2.3501735 0.15569495
0.048526157 -2.352165 0.15574318
0.48905143 -2.3502705 0.15263692
-0.11391268 -2.3435569 0.15833141
0.05339776 -2.3473797 0.15256339
0.53321993 -2.3476374 0.1545227
0.67170054 -2.3602688 0.16519709
-0.22092625 -2.3501339 0.16252561
0.040484473 -2.358093 0.16012378
0.50814134 -2.3537729 0.16851114
0.62355834 -2.3547306 0.16635704
-0.11068425 -2.3492172 0.1603218
-0.09970399 -2.3423483 0.16397774
-0.088756301 -2.341506 0.16767403
0.48533654 -2.3446245 0.161539
0.52978027 -2.34395 0.16431572
0.049693998 -2.3601701 0.17881931
0.55494636 -2.3614142 0.17153199
0.66915929 -2.3614135 0.17772664
-0.1229618 -2.3537545 0.17817158
0.054361831 -2.3560436 0.17627025
-0.17361876 -2.341737 0.1724388
-0.16255195 -2.3435807 0.17977513
-0.13363618 -2.3422873 0.17181304
-0.12813002 -2.3437855 0.17467164
-0.07204321 -2.3438153 0.17264415
-0.06263867 -2.3476808 0.17519021
0.0926814 -2.3450484 0.17471252
0.4820798 -2.3419263 0.17054299
0.50308836 -2.3432698 0.17736909
-0.11351219 -2.3584669 0.18268493
-0.10951521 -2.3571808 0.18409373
-0.093467884 -2.3570666 0.18961786
0.52565342 -2.3512297 0.18470092
-0.11689222 -2.3478248 0.18010965
-0.10110199 -2.3466699 0.18596925
0.61625987 -2.3493414 0.18911335
5.680655 -2.3677921 0.19994332
-0.12717763 -2.3564911 0.1994537
-0.072857819 -2.3577836 0.19527347
0.053982828 -2.3565593 0.19932586
0.47535646 -2.3534722 0.19859882
0.49951777 -2.3554969 0.19720051
0.52280527 -2.3524532 0.19466686
0.59333128 -2.3560359 0.19455631
-0.17098798 -2.3427575 0.19893901
-0.13297337 -2.3480077 0.19586211
-0.085015498 -2.3495822 0.19129199
-0.066218145 -2.345489 0.19540125
0.54616857 -2.3492324 0.19136669
0.093797848 -2.3611293 0.20143379
0.59126574 -2.3611131 0.20601964
-0.10338299 -2.3539391 0.20801175
0.045703746 -2.3588061 0.20264468
0.54409188 -2.3543434 0.20199642
0.087481499 -2.3465524 0.20426141
0.49485418 -2.3489377 0.20608328
0.51810426 -2.3458948 0.20396543
0.61258692 -2.3476326 0.20044334
-0.19286388 -2.351763 0.21139403
-0.18443818 -2.3569832 0.21745162
-0.13457316 -2.3528962 0.21859524
-0.087752618 -2.3510442 0.21230377
-0.069644079 -2.3500736 0.21644858
0.46793318 -2.3501482 0.21620876
-0.227798 -2.3459535 0.21137252
-0.17915612 -2.3467164 0.21899961
-0.074044801 -2.3453422 0.21496812
0.49126294 -2.3482492 0.21534042
0.51389426 -2.3422725 0.21339208
0.58420086 -2.3616245 0.22802262
-0.10677072 -2.3561897 0.22917882
0.052878253 -2.3529048 0.22165442
0.53744012 -2.3558531 0.22243048
0.60739064 -2.3548796 0.22379194
-0.17480943 -2.3493466 0.22185893
0.085783631 -2.3458076 0.22917712
0.48652872 -2.3426921 0.22410209
0.51141602 -2.3474321 0.22348279
-0.090119652 -2.3612571 0.23456223
-0.085122809 -2.358036 0.23539045
-0.075070217 -2.3506131 0.23669921
0.65102935 -2.3586833 0.23881795
-0.096775994 -2.3462467 0.23086971
0.48423445 -2.3498392 0.23389821
0.50752497 -2.3467584 0.23301448
0.53180975 -2.3473897 0.23172237
0.60072958 -2.3435507 0.23403859
0.62664354 -2.3472552 0.23042125
-0.18252423 -2.3600566 0.24332251
0.482752 -2.3618805 0.24412876
0.60117143 -2.3612123 0.24689464
-0.11165528 -2.3504524 0.24886084
0.53034258 -2.3583863 0.24269997
0.62353575 -2.3504083 0.24233936
-0.17648496 -2.345865 0.2442728
0.50327688 -2.3451226 0.24237645
-0.080740571 -2.3579066 0.25786126
0.08566802 -2.3581579 0.25375906
0.55004501 -2.3552077 0.25106314
0.59633249 -2.3586023 0.25779125
0.62047791 -2.3545377 0.25430572
-0.093472987 -2.3475947 0.25353336
0.47622079 -2.3495269 0.25199509
0.49928957 -2.3454483 0.25184038
-0.18853323 -2.356715 0.26355407
-0.12486371 -2.3548348 0.26732525
-0.18224917 -2.3445272 0.26474103
-0.17714958 -2.348171 0.26786095
-0.14027877 -2.3427715 0.26004493
-0.11900217 -2.346653 0.26800013
0.47170892 -2.3479249 0.26077729
0.51941258 -2.3463843 0.26122388
-0.10851824 -2.3570414 0.2726115
-0.097249769 -2.3535841 0.27505594
-0.086053327 -2.3541036 0.27768874
0.46398005 -2.3535435 0.27900478
0.49206266 -2.3519831 0.27114803
0.51741439 -2.3574185 0.27208656
0.5404653 -2.3509951 0.27104092
0.58685148 -2.3563185 0.27958626
0.61252564 -2.3580172 0.27758461
0.66340822 -2.356956 0.27078512
-0.1493585 -2.3457191 0.27951649
-0.091223188 -2.3424537 0.27487627
0.46092039 -2.3617408 0.28861251
0.65965283 -2.3601203 0.28337434
-0.13832021 -2.35111 0.28443927
-0.12702243 -2.3555336 0.28889364
0.48571071 -2.3544822 0.28518403
0.60667396 -2.353512 0.2884118
-0.18179072 -2.3456726 0.28860125
-0.1436255 -2.3444557 0.28147858
-0.13239057 -2.3478796 0.28595492
0.47982523 -2.3609023 0.29952723
-0.121228 -2.3562691 0.29078504
0.6018675 -2.3538377 0.29967326
-0.1761128 -2.3473504 0.29148737
-0.11477106 -2.3441522 0.29077101
-0.10600241 -2.3452716 0.29328108
-0.091202043 -2.3461671 0.296904
0.50363827 -2.3476229 0.29492459
-0.24143162 -2.3613632 0.30793825
-0.13499512 -2.362227 0.30966321
-0.1930002 -2.3571043 0.30882367
-0.14058471 -2.352607 0.30623609
0.52738917 -2.3559277 0.30154401
-0.1858094 -2.3439867 0.30972403
-0.14626928 -2.3459551 0.30316612
-0.18020676 -2.3515873 0.31358039
0.46833864 -2.3539162 0.31649685
0.49345088 -2.3592918 0.31967193
0.52220327 -2.3553319 0.31127843
0.46429184 -2.3601844 0.3260234
0.54286951 -2.3606801 0.32273391
-0.20950654 -2.3538413 0.32390481
-0.14550284 -2.3560181 0.32751524
0.51728147 -2.3566892 0.3211526
-0.20255224 -2.347631 0.32605603
0.50991678 -2.3473847 0.32956564
-0.13609999 -2.3625436 0.33164552
0.45933196 -2.3625669 0.33498701
0.53731823 -2.3600986 0.33272082
0.4822154 -2.3572071 0.33766311
-0.23900022 -2.343169 0.33028787
0.61054838 -2.3496013 0.33151951
0.63366103 -2.3607893 0.34329599
0.47628957 -2.3556957 0.34642506
0.50654352 -2.3574982 0.34036988
0.53096384 -2.3566246 0.34221196
0.60721648 -2.3586152 0.34398893
-0.21265733 -2.3448782 0.34428611
-0.20592944 -2.3455684 0.34756431
-0.14572755 -2.3443332 0.3476325
-0.13636076 -2.3607056 0.35347208
0.62792975 -2.3611519 0.35500237
-0.24469435 -2.3516915 0.35343066
-0.19628376 -2.3534994 0.35341024
-0.12889189 -2.3516023 0.3538909
-0.11511274 -2.3560588 0.35818905
0.46946287 -2.3503063 0.35453239
0.60173035 -2.3599513 0.35536101
-0.12169525 -2.3474276 0.35501349
-0.10759463 -2.345983 0.358082
0.49338338 -2.3496208 0.35795495
0.5225547 -2.344449 0.35037476
0.65048122 -2.3477976 0.3518663
5.1515622 -2.3631885 0.36337137
0.46516532 -2.3585415 0.36441272
0.48750022 -2.3500657 0.36716226
0.51887625 -2.3545525 0.36147094
0.62001991 -2.3538563 0.36549911
-0.15712953 -2.3495846 0.36732531
-0.14977472 -2.3473709 0.3692165
0.53962094 -2.3635514 0.37494266
0.48185998 -2.3524623 0.37654209
0.61515719 -2.3590369 0.37766117
-0.2013339 -2.34305 0.37234995
-0.19442151 -2.3476853 0.37615442
-0.12050397 -2.3464248 0.3769905
-0.11324563 -2.3491483 0.37917176
0.47741553 -2.3616621 0.38684008
0.61008239 -2.3642297 0.3897512
0.50346255 -2.3546908 0.38524431
0.52998966 -2.3485301 0.38264623
-0.20482762 -2.3631792 0.3984704
0.52621418 -2.3605661 0.39427006
0.60046065 -2.3521755 0.39905584
2.4504576 -2.3514307 0.39515391
-0.19542749 -2.3433154 0.3978278
-0.14548783 -2.3445721 0.39212859
-0.13422388 -2.3486383 0.39599282
-0.12654136 -2.3493912 0.39804542
0.46137315 -2.3461342 0.40193203
0.48556054 -2.3471508 0.40706626
0.61787963 -2.3449495 0.40994042
0.51303458 -2.3614893 0.41368097
0.53747416 -2.3591795 0.41694817
-0.19765101 -2.3622503 0.42421389
0.47221702 -2.3491075 0.42516258
0.50274211 -2.3455465 0.42048997
0.52822948 -2.3490467 0.42513114
0.6382975 -2.3489914 0.42269892
0.46711946 -2.3592989 0.43558341
0.49782193 -2.3556948 0.43144765
0.52330798 -2.3591611 0.43655777
0.63250029 -2.3541818 0.43525925
2.4461446 -2.3543391 0.43913546
-0.21321815 -2.3462858 0.43778628
-0.20609635 -2.3616505 0.44410986
0.46089193 -2.3646603 0.44509983
0.57466286 -2.3616023 0.44396734
0.49130535 -2.3590922 0.44117957
0.51588511 -2.3586864 0.44607496
-0.19637504 -2.3477316 0.44432202
0.59706575 -2.3472059 0.44388086
0.45266357 -2.3603499 0.45280555
-0.22288387 -2.3552625 0.45949581
0.47507989 -2.3523953 0.45787475
0.50749218 -2.354368 0.45476192
0.59062457 -2.3514872 0.45556423
0.46962419 -2.3635509 0.46862155
0.50179815 -2.3635507 0.46572912
0.53381246 -2.3604927 0.46059224
-0.20494013 -2.3528106 0.46552134
0.52344203 -2.3484957 0.46814546
0.60819024 -2.3478866 0.46832642
0.46135116 -2.3611939 0.47678125
-0.15955639 -2.3506651 0.47885171
-0.17759947 -2.3481967 0.47323799
-0.16829267 -2.3450441 0.47515401
0.60398817 -2.3626597 0.4822194
0.45185837 -2.3530512 0.48367819
0.50902361 -2.3552938 0.48843777
-0.2215597 -2.3443036 0.4805392
-0.14095454 -2.3473032 0.48258284
0.59547901 -2.3612301 0.49294394
-0.1948968 -2.3581641 0.49318841
-0.1855218 -2.3589044 0.4962461
-0.17609029 -2.3596492 0.49915263
0.46788001 -2.3541293 0.4996998
0.47520539 -2.3497241 0.49016014
-0.14748548 -2.3619082 0.50695664
0.49430436 -2.3640552 0.50860381
-0.15636142 -2.3504553 0.50204033
0.46001434 -2.3566165 0.5087291
0.52639496 -2.3578548 0.50407898
-0.25945878 -2.3548801 0.51562726
-0.2121477 -2.3581872 0.51065254
0.45163068 -2.3571863 0.51722556
0.60470098 -2.3597887 0.51799661
-0.20164265 -2.3492198 0.51172245
0.48219508 -2.3463416 0.5140149
0.51617342 -2.349756 0.51202941
0.59653628 -2.3621905 0.52947885
-0.17237173 -2.351454 0.52076882
-0.16303922 -2.3599694 0.52532858
0.47619534 -2.3593981 0.52548498
0.50106877 -2.3604352 0.53288859
0.53585076 -2.3635888 0.53037888
-0.2201032 -2.3587396 0.53137732
-0.19938755 -2.3534386 0.53651518
0.46657687 -2.3551617 0.53325337
-0.20877814 -2.3449531 0.53132707
0.52725869 -2.3650856 0.54042745
-0.18956061 -2.3580561 0.54061002
-0.15850842 -2.3564425 0.54809481
0.45851135 -2.3595858 0.54266995
0.49086654 -2.3542838 0.54067749
-0.2268725 -2.3465281 0.54901195
-0.16832533 -2.3489084 0.54376346
0.44883093 -2.356329 0.5502829
0.473398 -2.358309 0.55920327
0.48269543 -2.3586891 0.55053842
0.50733989 -2.3575895 0.55773616
-0.18569753 -2.3572252 0.56435555
0.59304535 -2.3515925 0.56409132
-0.17421275 -2.3463871 0.56429529
0.52493507 -2.3654311 0.57595646
-0.23549762 -2.3534408 0.57148117
0.45403057 -2.3556592 0.57556456
0.48713079 -2.351088 0.57445508
-0.22393222 -2.3455038 0.57296258
-0.18142675 -2.3610182 0.58945352
0.44416055 -2.3543475 0.58346415
0.47876549 -2.357414 0.58471864
0.51270217 -2.3536024 0.58271664
-0.19126943 -2.3458107 0.58258039
-0.17028762 -2.3608112 0.59205538
0.4700202 -2.3627927 0.59462023
0.50182134 -2.3484592 0.5907706
0.49458283 -2.3614457 0.60291439
0.5927453 -2.3607371 0.60366714
2.8031483 -2.3606517 0.6051836
0.44784495 -2.3515813 0.6086759
0.45778072 -2.3509667 0.60028368
0.51879281 -2.3560901 0.60961926
0.48477119 -2.3629966 0.61219984
0.47442541 -2.362649 0.62083817
0.46172163 -2.3508654 0.62643725
0.49777254 -2.3544223 0.62769419
0.59622973 -2.3492925 0.62804949
0.58666074 -2.3536234 0.63987529
0.48578778 -2.3474197 0.63486952
0.51295817 -2.3561087 0.64579177
0.47543442 -2.3489854 0.64398879
0.50081319 -2.3500762 0.65342438
0.46455571 -2.3486574 0.65242487
0.49228767 -2.3620708 0.66555995
0.59317297 -2.3589485 0.66901106
-0.2764115 -2.3577106 0.67806548
0.47987923 -2.3560557 0.67275983
0.50691217 -2.3635118 0.68427849
0.4692516 -2.3595321 0.68227518
0.56904137 -2.3535378 0.68856919
0.45590621 -2.34974 0.68796337
0.59825593 -2.3612132 0.69787204
-0.19906893 -2.3555329 0.69946873
0.49374816 -2.3556252 0.69116449
0.55818981 -2.3569541 0.69969666
-0.22424331 -2.3473656 0.69043308
0.43325096 -2.3529387 0.70488816
0.48223767 -2.3562565 0.700149
0.58450109 -2.3533714 0.70635349
0.47188747 -2.3635144 0.710787
0.50945699 -2.3634572 0.71201086
0.45750523 -2.3509245 0.71558607
0.57132655 -2.3483486 0.71535248
0.49836513 -2.3678591 0.72234654
0.44542062 -2.3506341 0.72362781
0.48344597 -2.3543589 0.72729427
0.56111968 -2.3564479 0.72789669
0.47318926 -2.3644326 0.73883861
0.50922012 -2.353791 0.73728716
0.46105558 -2.36603 0.74770349
0.57690132 -2.3597794 0.74738532
0.48693582 -2.3672938 0.75921875
0.56349754 -2.3566597 0.75670445
0.47277236 -2.3604312 0.76574576
0.4341062 -2.3569932 0.76104659
0.51161766 -2.3598931 0.76752758
0.44760576 -2.3645821 0.78351361
0.56795734 -2.3687437 0.78964341
0.554286 -2.3675141 0.79931498
0.50005418 -2.3673244 0.80775607
0.45814013 -2.3559706 0.80104578
0.44703972 -2.368824 0.81326663
0.61044854 -2.3660672 0.81679899
0.48445043 -2.3577175 0.81344491
0.59533751 -2.3611469 0.82597816
0.45656079 -2.3562629 0.82975763
0.47029239 -2.3555863 0.82127047
0.49874687 -2.3654661 0.83632398
0.48511854 -2.3679965 0.84594536
0.61067897 -2.3634694 0.84633696
0.42817989 -2.354836 0.84502184
0.59552389 -2.3604188 0.85607409
0.4968119 -2.3643217 0.86540639
0.43944609 -2.3551602 0.86621052
0.61126 -2.3652425 0.87773293
0.59671241 -2.3667989 0.88905543
0.46638188 -2.3591919 0.88073307
0.45233029 -2.3635907 0.89044219
0.49538371 -2.3694241 0.89700091
2.4259844 -2.3651681 0.898377
0.47773618 -2.3571734 0.90121675
0.4647778 -2.3689501 0.91385251
0.43264627 -2.3629587 0.92750204
0.44910407 -2.367799 0.92151165
0.4891088 -2.3549271 0.92173356
0.41693738 -2.3627436 0.93490899
0.47638628 -2.3694248 0.93568492
5.8819823 -2.3616521 0.93865401
0.45854855 -2.3590755 0.9400475
0.42752185 -2.3641691 0.95760745
0.48765951 -2.3678153 0.95688683
0.41097918 -2.3621223 0.96418393
0.47085458 -2.3648438 0.96419948
0.45517945 -2.3682978 0.97370189
0.42233199 -2.3697214 0.98968273
0.43882254 -2.3690066 0.98184186
0.48213309 -2.3648376 0.9863348
0.43128827 -2.3633099 1.0097989
0.41240951 -2.3530676 1.0129987
0.44242385 -2.3685253 1.0348098
5.9013515 -2.376766 1.0483816
0.42452791 -2.3665156 1.0415478
2.4126625 -2.3603005 1.0416974
0.43495274 -2.3696318 1.0661072
0.47832513 -2.3538787 1.0665554
0.41684493 -2.369451 1.0734507
2.7809498 -2.3701739 1.0836332
0.46315175 -2.369035 1.0813655
0.47356907 -2.3688939 1.104763
0.45253563 -2.3570309 1.1075299
0.43484589 -2.3631494 1.1180046
0.41631016 -2.3656778 1.1265361
0.4647994 -2.3683121 1.1364216
0.44344535 -2.3574038 1.139289
0.45510155 -2.3674762 1.1681391
0.43423465 -2.3619697 1.1732311
0.46599215 -2.3727498 1.1950943
0.45442584 -2.3687148 1.2258309
0.43192989 -2.3597381 1.2290038
0.39199179 -2.3718185 1.2492243
0.41314003 -2.3719568 1.2423941
0.40017974 -2.3712039 1.2744242
0.45201075 -2.3688226 1.2841755
0.40899333 -2.373806 1.3015497
0.43894911 -2.3683832 1.3173491
0.4167861 -2.3699985 1.3255333
0.39462373 -2.3724883 1.3337897
0.42458934 -2.365932 1.3495492
0.44700509 -2.3634553 1.3407453
0.52627212 -2.3681321 1.3442925
0.50436842 -2.3731711 1.3559358
0.55904865 -2.3636279 1.3584588
0.37982827 -2.3743625 1.3678755
0.40288821 -2.3736093 1.3608217
0.43444121 -2.372807 1.3798701
0.53810036 -2.3737824 1.3735684
0.44245234 -2.3690193 1.4045258
0.39536902 -2.3748074 1.4220724
0.41059026 -2.3714597 1.4751552
0.41941875 -2.376081 1.5059438
5.2373242 -2.3825207 1.5141822
5.641747 -2.3758581 1.5233485
0.55158013 -2.3755536 1.5577401
0.43419173 -2.3675065 1.5574633
0.53329587 -2.3687224 1.591352
0.53662366 -2.3788037 1.7982506
0.51418889 -2.3752689 1.8364465
6.3551292 -2.3757327 1.9561148
6.346169 -2.3858874 2.075901
2.2962487 -2.3760047 2.675494
2.6352384 -2.385514 2.7612398
6.2872262 -2.3960145 2.8175566
2.6492419 -2.3968217 3.0815661
6.2437935 -2.3951917 3.3410101
2.2384508 -2.3964493 3.484652
5.4447122 -2.3895473 3.5603464
4.9332051 -2.3972631 3.7445185
6.1973505 -2.4069874 3.8963809
2.5789332 -2.4025774 4.165318
2.4315367 -2.4021389 4.2505164
6.1561313 -2.4049904 4.3363805
1.3404447 -2.4122353 4.7179427
1.6155479 -2.4055965 4.7344403
2.1931851 -2.4008942 4.7440848
1.9056128 -2.4095032 4.7582803
2.1063437 -2.3965378 4.7720351
2.425391 -2.4142344 4.8001928
6.1205354 -2.4134877 4.8095913
2.6489587 -2.4108753 4.8182058
2.8764341 -2.4052052 4.8257627
3.118854 -2.4062297 4.8403544
3.375562 -2.4118824 4.8576636
3.7983844 -2.402565 4.897171
5.3522024 -2.415729 5.0216994
