# .PCD v0.7 - Point Cloud Data file format
VERSION 0.7
FIELDS x y z
SIZE 4 4 4
TYPE F F F
COUNT 1 1 1
WIDTH 603
HEIGHT 1
VIEWPOINT 0 0 0 1 0 0 0
POINTS 603
DATA ascii
-0.68267542 -0.67129713 -0.10108562
-0.70328993 -0.66761053 -0.10435063
-0.68812627 -0.66452497 -0.10194894
-0.61363995 -0.81068504 -0.090151466
-0.62531483 -0.79571861 -0.092000581
-0.61334956 -0.79478061 -0.090105474
-0.63848573 -0.7829653 -0.094086654
-0.62832355 -0.78460824 -0.09247712
-0.61792469 -0.7420752 -0.09083011
-0.63641429 -0.73720974 -0.093758568
-0.62468028 -0.73658574 -0.091900088
-0.63741326 -0.7246626 -0.093916796
-0.63760358 -0.71139759 -0.093946934
-0.64344597 -0.70498061 -0.094872281
-0.71983159 -0.68234372 -0.09490294
-0.70519352 -0.68010044 -0.092845693
-0.69615275 -0.68340981 -0.091575101
-0.64419329 -0.68631172 -0.094990641
-0.65602434 -0.67408025 -0.096864507
-0.66492242 -0.66497016 -0.098273814
-0.66078937 -2.9653585 -0.086605102
-0.62555414 -0.80913395 -0.081653111
-0.63539022 -0.79163235 -0.083035484
-0.6287359 -0.79799837 -0.082100272
-0.63954371 -0.78206122 -0.083619222
-0.64542985 -0.77482873 -0.08444646
-0.64500773 -0.75978398 -0.084387131
-0.65599018 -0.73105198 -0.085930623
-0.6441704 -0.73067486 -0.084269457
-0.63429713 -0.7324639 -0.08288186
-0.66461682 -0.72750586 -0.087143011
-0.68050933 -0.71864766 -0.089376561
-0.6647017 -0.7141301 -0.087154947
-0.67704356 -0.70156258 -0.08888948
-0.68279022 -0.69483656 -0.089697115
-0.68370056 -0.68298846 -0.089825056
-0.30406475 0.49658382 -0.041119576
-0.34465426 0.50333548 -0.047548316
-0.33487472 0.50264436 -0.045999397
-0.31312639 0.50203168 -0.044949815
-0.29740989 0.5043366 -0.04232958
-0.36724123 -2.9626613 -0.033894829
-0.32370511 0.49863213 -0.039230995
-0.31353292 0.49673399 -0.037801389
-0.30905259 0.49865559 -0.037171721
-0.35661042 0.50411928 -0.035531268
-0.34354946 0.50317025 -0.031404722
-0.33306205 0.50231886 -0.035410754
-0.31456006 0.50149095 -0.033139002
-0.30279845 0.50170881 -0.0339895
-0.29183927 0.50328994 -0.036975004
-0.2855013 0.50203609 -0.036039606
-0.26059511 0.50089943 -0.032299444
-0.24111962 0.50357872 -0.031150045
-0.28767788 -2.9623828 -0.027681962
-0.22837226 -2.8934693 -0.029131062
-0.22593862 -2.8544736 -0.025490813
-0.22575751 -2.8453987 -0.022235416
-0.23657081 0.4981662 -0.025287051
-0.31602532 0.50243664 -0.026084384
-0.28665328 0.50685078 -0.029712478
-0.27797171 0.50167972 -0.028646516
-0.25630033 0.50155008 -0.02787346
-0.2364008 0.50314671 -0.026961176
-0.22519992 0.50175744 -0.028628614
-0.21405196 0.50349241 -0.025259901
-0.20138915 0.50133479 -0.022040611
-0.19309911 0.50009555 -0.024907935
-0.22558267 -2.8373346 -0.019005913
-0.22064719 -2.7694688 -0.015382119
-0.2160196 -2.7066014 -0.011966521
-0.16309908 -2.3005197 -0.012438623
-0.10084983 -2.305017 -0.01048977
-0.16227001 -2.2943089 -0.014447263
-0.1408686 -2.273459 -0.010954659
-0.091415532 0.28127313 -0.010074945
-0.097856782 0.29724681 -0.010435027
-0.10772941 0.32243228 -0.011784473
-0.1162205 0.34391081 -0.012678643
-0.13649873 0.38737437 -0.016254241
-0.12813202 0.38240209 -0.013254566
-0.13341202 0.41396379 -0.010896816
-0.2623207 0.44505095 -0.017761298
-0.25317562 0.44375291 -0.018227989
-0.24498062 0.44612786 -0.017511019
-0.22614343 0.44606274 -0.015862977
-0.20334518 0.44495231 -0.011080239
-0.19762924 0.44224125 -0.010680541
-0.14837107 0.44377583 -0.010890648
-0.17747495 0.49953625 -0.018679688
-0.18528458 0.5009501 -0.017265964
-0.21335132 -2.6696677 -0.0088261515
-0.10240018 -2.3146191 -0.0058612833
-0.10255903 -2.3071523 -0.0026847594
-0.081500493 -2.3045292 -0.0040844162
-0.081075981 -2.2949178 -0.0038232431
-0.16257204 -2.2833807 -0.0061643478
-0.080936864 -2.2817531 -0.0031590497
-0.14161104 -2.2706795 -0.0016864715
-0.16160113 -2.2663627 -0.0020353999
-0.040201813 -2.2645199 -0.00030700662
-0.039395005 -2.2649963 -0.00097769662
-0.1404489 -2.2547688 -0.0050043138
-0.040203292 -2.2596765 -0.00016654744
-0.039399158 -2.2529335 -0.00087258086
-0.13932998 -2.2418981 -0.0082677854
-0.039639413 -2.2465477 -0.00060719589
-0.081282049 0.25566402 -0.0086614005
-0.07685104 0.25438815 -0.0072089378
-0.06463898 0.25422505 -0.0039090225
-0.054293651 0.25336954 -0.0014273417
-0.047772918 0.25206834 -0.00071165763
-0.083474591 0.26347187 -0.0084494324
-0.074461892 0.26559362 -0.0047775768
-0.067392997 0.26352078 -0.0030531085
-0.053682279 0.26464403 -0.00060544698
-0.04651466 0.26868719 -4.9328977e-05
-0.082185082 0.27360135 -0.0066772788
-0.076983087 0.27690136 -0.0045564775
-0.066414744 0.27740037 -0.0021071644
-0.05692073 0.27358079 -0.00071234594
-0.042252887 0.27308771 -9.4974072e-05
-0.091463767 0.28690413 -0.0091923503
-0.082321763 0.28288639 -0.0056567127
-0.074257277 0.28169212 -0.0033913646
-0.065781564 0.2828719 -0.0016601
-0.057859182 0.28612033 -0.0004500098
-0.089519463 0.29346451 -0.0071389391
-0.066794381 0.29459101 -0.0013629464
-0.057578702 0.2944319 -0.00021968169
-0.043765809 0.29398513 -9.2996277e-05
-0.094499022 0.3009645 -0.0088485591
-0.08164297 0.3051182 -0.0038772412
-0.076392338 0.3037101 -0.0027614553
-0.094539672 0.31415755 -0.0070238947
-0.089127883 0.31304017 -0.0054594073
-0.066163152 0.31550062 -0.00056181685
-0.04301646 0.31191337 -0.00024312305
-0.073662333 0.32022718 -0.0015053614
-0.040352877 0.32391229 -4.5287448e-05
-0.035022408 0.32571888 -0.0013590087
-0.10653589 0.332941 -0.0098340763
-0.089707814 0.33937064 -0.0039264085
-0.040017579 0.33051589 -0.00068914599
-0.036189016 0.33595055 -0.00072894734
-0.085789368 0.34480405 -0.0028599356
-0.077820741 0.3460665 -0.0011470829
-0.040726122 0.34605575 -0.00070550223
-0.03812135 0.34208822 -0.001381765
-0.10631353 0.35574019 -0.0075695389
-0.098958381 0.35099369 -0.0056971642
-0.086733438 0.35811821 -0.002190389
-0.077403218 0.35548776 -0.00056571985
-0.040211149 0.35631508 -0.00080745795
-0.11447777 0.36217818 -0.009826012
-0.042387728 0.37317634 -0.00034623654
-0.10374541 0.38529366 -0.0046578627
-0.092342108 0.38980809 -0.0016541802
-0.11612844 0.3937366 -0.0075018108
-0.094883531 0.39322066 -0.0018273736
-0.12490716 0.40004042 -0.00985255
-0.12005802 0.41574079 -0.0065817074
-0.11141393 0.41019881 -0.0046517798
-0.10255703 0.4150067 -0.0020108928
-0.10901665 0.43815437 -0.0011175344
-0.19784033 0.4422892 -0.008013254
-0.18347076 0.44184527 -0.0056193769
-0.17376955 0.44278777 -0.0067571648
-0.16374478 0.44610754 -0.0083111096
-0.154919 0.44383481 -0.0052440153
-0.14018394 0.44132251 -0.0041627367
-0.13614371 0.44108325 -0.0047699292
-0.033409655 -2.3606963 0.0019056957
-0.016216055 -2.360055 0.003220089
-0.12341417 -2.3163812 0.0051456979
-0.08163242 -2.3154888 0.004878256
-0.061856128 -2.3171902 0
-0.051767148 -2.3194518 0.0091092214
-0.040230226 -2.3126311 0.00080309145
-0.024296971 -2.315062 0.0032171416
-0.019172575 -2.3185172 0.003674272
1.4288984e-16 -2.3126512 0.0056286911
-0.10256046 -2.3098664 0.0040326845
-0.08153744 -2.3023019 0.0032197183
-0.061558805 -2.306201 0.00028915465
-0.054049492 -2.3043196 0.0077498807
-0.040346712 -2.3074105 0.00071903865
-0.10152668 -2.295048 0.0044842786
-0.081118032 -2.2955732 0.0042619472
-0.061190583 -2.2932258 0.00056634488
-0.055697672 -2.2948902 0.0066560712
-0.040510323 -2.2990811 0.00056943478
-0.1010739 -2.2847757 0.0057803704
-0.081124224 -2.2862334 0.00285654
-0.056189191 -2.2853715 0.0061345799
-0.040443026 -2.2852294 0.00045257024
-0.16197453 -2.2713437 0
-0.10139963 -2.2777941 0.00098457886
-0.081082806 -2.2770882 0.00031568113
-0.057775036 -2.274868 0.0047073634
-0.14120546 -2.2657211 0.0027987803
-0.060262747 -2.2647016 0.0012583819
-0.059054773 -2.2652605 0.0032667331
-0.040271025 -2.2636781 0.00013694135
-0.060112547 -2.2563207 0.0010644374
-0.058160406 -2.2565911 0.0038007847
-0.040025346 -2.2537594 0.00034019654
-0.059576333 -2.2475495 0.0018309336
-0.040029719 -2.2486575 8.6636908e-05
-0.02105948 0.19503918 0.0060847281
-0.017039154 0.19522838 0.0048094108
-0.023938848 0.20652896 0.0033120643
-0.015917629 0.20599329 0.0034379761
-0.031686395 0.21496725 0.0026798889
-0.024314461 0.21646254 0.0041455328
-0.017783616 0.21617579 0.00609159
-0.0091086198 0.21951365 0.0037464264
-0.042316742 0.22437391 0.00019879769
-0.033435296 0.22659567 0.0022317914
-0.025056856 0.22613548 0.005440752
-0.016212009 0.22535351 0.0060670832
-0.0021016919 0.22792356 0.0038934015
-0.042283341 0.25334501 0.00021078462
-0.034479115 0.25301844 0.0015313212
-0.013815756 0.25399479 0.004026542
-0.041977979 0.26095799 0
-0.032416973 0.26823258 0.0025611804
-0.027223699 0.26376411 0.0062054573
-0.017104305 0.26512581 0.00270034
-0.0062434762 0.26327181 0.0047391611
0.0060092378 0.26471302 0.0053936411
0.011220304 0.26036856 0.0068618008
-0.046452727 0.27332246 0
-0.031899143 0.27426133 0.0031195907
-0.022999052 0.27735117 0.000953326
-0.013777258 0.27328673 0.0079507641
-0.050938364 0.28464615 0
-0.047482498 0.28939775 8.7647975e-05
-0.034318224 0.286589 0.0055217496
-0.019576499 0.28462592 0.0089874035
-0.050631743 0.29389402 9.8422097e-05
-0.046199732 0.2946611 7.8616838e-05
-0.034392387 0.29385254 0.0037194616
-0.055296086 0.3051804 0.00017983851
-0.036296144 0.30691004 0.0053449129
-0.028407846 0.30915937 0.0017598872
-0.060170211 0.31641027 0
-0.05428534 0.31810027 0.00039438476
-0.040563788 0.31656122 0.0069088619
-0.034549166 0.31756026 0.0030262936
-0.027123317 0.31492907 0.0066599278
-0.065235801 0.32756731 0
-0.045584459 0.32589683 0.0010307268
-0.033024207 0.32488599 0.00096401671
-0.044450521 0.33236316 0.0034341314
-0.036575507 0.33801082 0.0081614591
-0.064680614 0.34303737 0.00050815521
-0.055527292 0.3456603 0.00094933988
-0.045158405 0.34538791 0.0041616112
-0.03522804 0.34351969 0.0038952944
-0.062316641 0.35165477 0.0009107588
-0.043605465 0.35454014 0.00061201223
-0.036521755 0.35555321 0.0043740729
-0.052663013 0.36387289 0.0014717421
-0.047100201 0.36431858 0.0013693535
-0.037056364 0.3664906 0.0067178011
-0.079838313 0.37755051 0
-0.060714472 0.3741439 0.0016775671
-0.050540023 0.37515557 0.0075751501
-0.04468311 0.3740063 0.0004089947
-0.039059084 0.37293103 0.0089748213
-0.054585509 0.38512942 0.0040697656
-0.047514956 0.38591564 0.0014562369
-0.074848399 0.39260018 0.0013149781
-0.067859598 0.39526966 0.0020149371
-0.051642314 0.39470744 0.0042745541
-0.047918405 0.392591 0.00082934543
-0.079601258 0.40424952 0.0012092598
-0.064591393 0.40520006 0.002777183
-0.054305762 0.40551659 0.004086908
-0.049392745 0.40520284 0.0013535074
-0.094587788 0.41709909 0.0042135115
-0.085568994 0.41658428 0.0023620403
-0.075074308 0.41524029 0.0026461422
-0.060701784 0.41486001 0.0035465364
-0.1346572 0.44175449 0.001565092
-0.11407603 0.4446522 0.0060202829
-0.079320997 0.44020593 0.0061722635
-0.016145045 -2.3705363 0.016787468
-0.080782495 -2.3632762 0.010760328
-0.022351895 -2.3660593 0.016222682
-0.014863577 -2.3646822 0.017097574
1.3388595e-16 -2.3223784 0.016816232
-0.03507081 -2.3126755 0.013279391
-0.029189929 -2.3147278 0.014214463
1.3446123e-16 -2.3140578 0.015935449
0.019644666 -2.3108768 0.019162703
0.020176638 -2.3120885 0.012504859
-0.041352868 -2.3075528 0.011957151
-0.03477253 -2.3070879 0.013191984
1.3631837e-16 -2.3073699 0.01418162
0.019792531 -2.3047817 0.016949067
0.020127632 -2.3057442 0.012496891
-0.037045073 -2.2973182 0.012589975
1.3755652e-16 -2.2937431 0.012403681
0.059575878 -2.2658918 0.018319003
0.079763889 -2.2650881 0.018571347
0.059543297 -2.2577648 0.016470283
0.059284061 -2.2416542 0.014594621
-0.015937671 0.19456618 0.01134763
-0.0070600007 0.19657403 0.019941492
-0.014902953 0.20772485 0.01404501
-0.0076154592 0.20290881 0.016698515
-0.021304782 0.21687379 0.010670528
-0.015069955 0.21643735 0.014983479
-0.0073202378 0.21492733 0.016043484
0.0014110594 0.21810281 0.018931393
0.012614657 0.21937393 0.014945786
-0.021029383 0.22646588 0.010913306
-0.014994035 0.22569327 0.015129737
-0.0071194121 0.22598451 0.016269363
0.0034249714 0.22664109 0.015617061
0.012766865 0.22859712 0.016292056
0.027078625 0.22753 0.010068442
-0.0065208143 0.23510157 0.016191451
0.004477018 0.23542874 0.016004628
0.014668508 0.23546934 0.014970748
0.024211966 0.23426829 0.016197199
-0.024813779 0.25763488 0.011709185
-0.017248867 0.25560459 0.010261191
-0.022565795 0.2656332 0.016771801
-0.0057038753 0.26276159 0.015074647
0.0037385554 0.26298329 0.01015068
0.013860221 0.26127309 0.013805194
0.026163897 0.2606914 0.012427568
0.036008827 0.26498812 0.015303478
0.041616909 0.26566094 0.011340653
-0.031674236 0.27481246 0.011837848
-0.02600468 0.27353448 0.015730539
0.038783781 0.27386442 0.015363771
0.044592686 0.27622607 0.012529883
-0.033524651 0.28735861 0.01548849
-0.027806981 0.28053486 0.010807234
0.038155884 0.28457698 0.019649858
0.04709072 0.2855688 0.012864633
-0.033184707 0.29574144 0.012517627
0.044723153 0.29566127 0.01647239
-0.034275245 0.30443987 0.012780245
-0.028413814 0.30194134 0.016829096
0.047269456 0.3038055 0.016912911
0.096063375 0.30402026 0.019763617
-0.04023869 0.31807619 0.012327385
-0.033111084 0.3162013 0.011782509
-0.027242066 0.31781617 0.015255531
0.048836246 0.3126018 0.01807921
-0.03358933 0.32561803 0.013561393
-0.023376262 0.32357371 0.016135003
0.055016264 0.32488561 0.016627774
-0.043138172 0.33167675 0.011318366
-0.035207756 0.33834708 0.014217723
-0.026599159 0.33188415 0.014090627
0.06094294 0.33409375 0.014827761
-0.045649704 0.34513775 0.010160026
-0.036751762 0.34930423 0.012957704
-0.04683527 0.3557933 0.01619434
-0.034186773 0.35576129 0.014278381
-0.049843345 0.36920685 0.012898089
-0.038281783 0.36356628 0.010613407
0.072089136 0.365987 0.015354741
-0.038650472 0.37801453 0.016194612
0.065969929 0.37357104 0.019446447
0.073900402 0.37424585 0.015504384
-0.0523647 0.38272697 0.014335474
-0.037411958 0.38683012 0.014213883
-0.054528341 0.39315444 0.015334224
-0.040172238 0.39543462 0.012250944
-0.038864758 0.39342606 0.015652223
-0.056621067 0.40354165 0.014371436
0.078241609 0.40177032 0.019431803
-0.058629327 0.41472337 0.01352708
0.11231572 -2.5600729 0.024828613
0.109153 -2.4942651 0.027060786
-0.0098242713 -2.3767824 0.021255875
-0.010878732 -2.3623977 0.020614725
-0.0081219748 -2.3643265 0.022288546
1.2420621e-16 -2.3162398 0.022831399
1.2799404e-16 -2.3059046 0.020429572
0.018915132 -2.3026381 0.024862489
0.018640747 -2.2931345 0.02613375
0.019099222 -2.2881508 0.022332594
0.058437414 -2.2672479 0.027303105
0.079427443 -2.265276 0.02181937
0.058792315 -2.2583253 0.023077061
0.078620575 -2.2579181 0.026066396
0.058332302 -2.2423697 0.02358987
-0.010757063 0.19714493 0.021663493
-0.010815457 0.20585507 0.021170883
-0.010791477 0.21647158 0.02094971
0.016233556 0.21017827 0.025530793
-0.010840327 0.22455294 0.021125205
0.013403665 0.22534049 0.024588402
0.021588806 0.22900301 0.022664543
-0.010653508 0.23435937 0.020820178
0.0058435039 0.23618107 0.023909459
0.015469654 0.23573607 0.024619121
0.021442151 0.23484527 0.025307609
-0.0017413466 0.26572403 0.020200331
0.029399127 0.26445904 0.02542655
0.03225296 0.26776338 0.021652069
0.034202207 0.28464648 0.02642178
0.038984854 0.29829025 0.022092817
0.081170022 0.29607505 0.027725937
0.039999608 0.30598187 0.023873383
0.042598568 0.30601528 0.021507502
0.083039194 0.30964756 0.028138394
0.091147743 0.30179107 0.022671318
0.042014938 0.31491426 0.025457939
0.093319274 0.32026464 0.026725834
0.046615064 0.33315444 0.025615569
0.052762959 0.33506009 0.020571139
0.048706762 0.34604648 0.026370119
0.052231926 0.34895372 0.023909368
0.092358284 0.34348378 0.028987385
0.10633798 0.34541237 0.027885206
0.050033953 0.35568625 0.028453641
0.097114541 0.3579461 0.027463559
0.10372113 0.359965 0.02874775
0.1131079 0.35073778 0.024954084
0.061248176 0.36516529 0.020491844
0.096090183 0.36533505 0.029780624
0.057479367 0.37490138 0.026409758
0.099876001 0.37696728 0.028000332
0.1067755 0.37894511 0.029341459
0.11460741 0.37717295 0.026600007
0.065323777 0.38758615 0.023241023
0.097189814 0.38443363 0.028740205
0.12192899 0.38285142 0.023398792
0.13095084 0.38905323 0.02466673
0.062948756 0.39370206 0.026581373
0.070649497 0.39792603 0.022319276
0.097621396 0.39731145 0.02881637
0.10451856 0.39145499 0.02624361
0.068975791 0.40803033 0.026047112
0.10544521 0.40550917 0.025502861
0.1120842 0.40135297 0.026653308
0.12459078 0.40516046 0.024471257
0.0663618 0.41415375 0.029428449
0.075506166 0.41362047 0.025396917
0.084797919 0.41437587 0.026656259
0.096216105 0.41467699 0.028131394
0.082248665 0.44097456 0.029111398
0.12730002 0.44020158 0.02415364
0.15042423 -2.8798139 0.037825912
0.14957155 -2.8537066 0.034187671
0.14928538 -2.839596 0.030684032
0.15048306 -2.454015 0.034348391
0.15044084 -2.4459002 0.030867038
0.10423353 -2.3966582 0.031511545
0.10336346 -2.3858385 0.033986133
0.057602227 -2.2770319 0.033552203
0.076920643 -2.2549672 0.035559814
0.077011034 -2.2476192 0.033746943
0.066415735 0.28825611 0.034069538
0.073144034 0.29114959 0.03124574
0.074656889 0.30508131 0.032624841
0.077603444 0.3158654 0.034633655
0.074136823 0.3267923 0.034734055
0.085104637 0.32290575 0.034450576
0.073481664 0.33965117 0.03482103
0.080406062 0.33376768 0.033191595
0.095144495 0.33559412 0.032040171
0.076891929 0.34776294 0.035546854
0.087569103 0.3429938 0.031517699
0.084603027 0.35866013 0.03312172
0.090769425 0.35833955 0.031078571
0.075484715 0.36488888 0.035113748
0.086346984 0.36455226 0.032415207
0.091046169 0.36971435 0.031142462
0.072013333 0.37438476 0.033053175
0.084550634 0.37525749 0.033117615
0.097233124 0.37960353 0.030023564
0.10417214 0.3753854 0.039559696
0.1103939 0.3728871 0.035609238
0.058542285 0.3832747 0.032927305
0.077838629 0.38647711 0.033620201
0.082722224 0.38695136 0.03381221
0.092698514 0.38689911 0.031523935
0.10929716 0.38031819 0.038137328
0.11787097 0.38431022 0.034410276
0.058785446 0.39165565 0.031129241
0.066964209 0.39513484 0.033629738
0.073117122 0.39358374 0.033338107
0.085468203 0.3974247 0.032961827
0.091543347 0.39447773 0.031257246
0.12460345 0.3933596 0.033773176
0.06360954 0.40192178 0.032604113
0.07322491 0.40087467 0.032333277
0.086446688 0.40703139 0.031240162
0.090266228 0.40206128 0.030962398
0.1274621 0.40203953 0.036448933
0.067782395 0.41461787 0.031839967
0.071690604 0.41435111 0.031561248
0.17304081 0.438968 0.038325928
0.18146221 0.43946654 0.039810851
0.15892789 0.44432461 0.037667464
0.16555172 0.4491052 0.033260368
0.1784678 0.44196942 0.039282855
0.18950647 0.4559097 0.037054427
0.20581611 0.45341796 0.039637621
0.15076984 -2.921268 0.048477631
0.150791 -2.909101 0.044935644
0.15050533 -2.8919542 0.041346923
0.1490221 -2.4620624 0.046281405
0.16682754 -2.3950274 0.044816315
0.23212036 -2.3962655 0.043803804
0.097989582 -2.2915189 0.04050174
0.11654491 0.39818627 0.041391838
0.12243094 0.3999818 0.041411947
0.14875196 0.44155192 0.044464894
0.15457299 0.4422105 0.047598731
0.16218789 0.44435999 0.043836005
0.17557082 0.44184691 0.044696081
0.1880341 0.44137067 0.045166038
0.19527523 0.44572031 0.04512018
0.21561918 0.44284233 0.043478854
0.2246988 0.44655031 0.042628344
0.17340036 0.45043084 0.042292017
0.20978932 0.45247096 0.040266912
0.21468921 0.45325071 0.04104298
0.22103226 0.45661122 0.042047624
0.23484787 0.45217466 0.044235799
0.24112242 0.45074329 0.045229591
0.22675589 0.44427696 0.052663285
0.24081437 0.44335195 0.050276238
0.31441569 0.49907535 0.056838106
0.32118997 0.50035065 0.057911046
0.34527522 -2.4466381 0.065207958
0.23918578 0.44305223 0.06019653
0.28481108 0.49960461 0.063948072
0.29137471 0.50124872 0.06522391
0.3208251 0.50103515 0.064384289
0.35165873 0.50136256 0.06982109
0.39928162 -2.6605122 0.070279546
0.39287683 -2.6250374 0.077088952
0.34399933 -2.4493217 0.075453103
0.32092905 0.50252026 0.070968695
0.3373228 0.50019407 0.074155316
0.39805755 0.50117934 0.078002453
0.4065814 0.5028367 0.079505436
0.41965395 0.50007933 0.073506206
0.46939683 -2.9561512 0.081384704
0.38812575 -2.6014442 0.084030405
0.46387601 -2.3753297 0.085053079
0.47928718 -2.3406909 0.082951181
0.42571929 0.49985147 0.082879961
0.41910166 0.50068104 0.081713103
0.43509072 0.50181645 0.084532402
0.4410767 0.50008339 0.085587889
0.5089376 0.5003286 0.087647349
0.52055466 -2.9534383 0.099601999
0.52683634 -2.8335412 0.090482228
0.57435298 -2.3777275 0.098008133
0.47433123 0.50138378 0.091451563
0.53588837 -2.8916829 0.10230574
0.54142797 -2.337044 0.10328253
0.69503844 -2.4096551 0.11712282
0.82107806 -2.7620194 0.13708554
0.78763664 -2.65572 0.14669576
2.1467233 -2.8928471 0.34704712
2.1416435 -2.8330376 0.34624258
2.1435153 -2.7838588 0.34653902
2.1404474 -2.7293518 0.34605312
2.1261528 -2.661813 0.34378907
2.1295071 -2.6180563 0.34432036
2.1354117 -2.578306 0.34525552
2.1350806 -2.5317614 0.3452031
2.1264143 -2.4762998 0.3438305
2.1292684 -2.4355297 0.34428254
2.1407454 -2.4053881 0.34610033
2.1763189 -2.40273 0.35173461
2.2186813 -2.4070013 0.35844415
2.2558925 -2.4048576 0.36433783
2.301393 -2.4109464 0.37154439
2.4058182 -2.2670488 0.38808376
2.4397929 -2.5135264 0.39346477
2.4444308 -2.2634366 0.39419937
2.5079217 -2.2822866 0.4042553
2.5440283 -2.2747607 0.40997407
2.5927706 -2.2780373 0.41769409
2.6387792 -2.278003 0.42498112
2.7112691 -2.3000615 0.4364624
3.1974471 -2.6719744 0.5134654
3.4521506 -0.47791249 0.55380648
3.4428282 -0.44544333 0.55232996
4.9560795 -2.970587 0.79200542
5.0339441 -2.2782507 0.80433798
5.0483584 -2.2312455 0.80662096
5.1972389 -2.4092758 0.83020133
5.1982112 -2.2439749 0.83035535
5.4807754 -2.6023362 0.87510914
5.4959445 -2.3175237 0.87751162
5.5961185 -2.968153 0.8933776
5.7147365 -2.96754 0.91216493
