# .PCD v0.7 - Point Cloud Data file format
VERSION 0.7
FIELDS x y z
SIZE 4 4 4
TYPE F F F
COUNT 1 1 1
WIDTH 885
HEIGHT 1
VIEWPOINT 0 0 0 1 0 0 0
POINTS 885
DATA ascii
-0.76836246 -3.0160608 -1.1914748
0.56061661 -2.9930856 -1.1898801
-0.59178305 -3.0123308 -1.1728894
-0.81153035 -3.0174513 -1.1658366
-0.69295239 -3.0185907 -1.1612576
-0.53553772 -3.0098293 -1.1617278
-0.55695409 -3.0118659 -1.1536081
-0.48170516 -3.0125241 -1.1505388
-0.46082395 -3.0132549 -1.1584764
0.49564734 -2.9978259 -1.1543517
0.56724364 -2.9960372 -1.1533736
-0.65743095 -3.0239441 -1.1466789
-0.50442433 -3.0237651 -1.1469266
-0.57893789 -3.0175762 -1.1465528
-0.40840453 -3.0138266 -1.1435446
-0.52349782 -3.0138397 -1.1346859
-0.42930424 -3.0149338 -1.1372175
-0.47164038 -3.0227063 -1.1256276
-0.35858276 -3.0224431 -1.1298376
-1.0395315 -3.0189133 -1.1210752
-0.61963648 -3.0143425 -1.1256341
-0.44941261 -3.0114267 -1.1287488
-0.37795576 -3.0133495 -1.1204307
0.55221027 -2.9901364 -1.1238689
0.94448173 -2.9887226 -1.1204638
1.1303207 -2.9861276 -1.1227976
-0.77591568 -3.0195668 -1.1130357
-0.71774012 -3.01826 -1.1104622
-0.56472749 -3.0151777 -1.1174172
-0.49044636 -3.012742 -1.1139965
-0.39880913 -3.0172405 -1.1156775
0.50230861 -2.9983263 -1.1179882
0.57121646 -2.9903669 -1.1140345
-0.41883409 -3.0155733 -1.108451
-0.32821864 -3.0105231 -1.1013776
-0.3494311 -3.0209348 -1.0999039
-0.60515916 -3.0156193 -1.0984062
-0.45845842 -3.0122523 -1.0930011
-0.43818218 -3.0102015 -1.0994925
-0.36921164 -3.0192554 -1.0935191
0.53843182 -2.9904017 -1.0968273
-0.409145 -3.021492 -1.0818305
-0.55091518 -3.0142937 -1.0890979
-0.47804591 -3.0105996 -1.0847828
-0.38898689 -3.0185106 -1.0871515
1.1259058 -2.9884923 -1.080614
-0.5181669 -3.015655 -1.0704287
-0.42765051 -3.0133131 -1.0720565
-0.32053977 -3.0170648 -1.0745982
-0.49762809 -3.0098794 -1.0765815
-0.33895245 -3.0069759 -1.0656298
1.0012467 -2.9905961 -1.0691916
1.4871781 -2.984653 -1.0671443
-0.39883971 -3.0224798 -1.0535169
-0.73894793 -3.0139732 -1.0582286
-0.48581743 -3.0139277 -1.0500543
-0.46670002 -3.014648 -1.0580536
-0.3782545 -3.0120173 -1.0559825
-0.31266144 -3.0214777 -1.0471233
-0.504632 -3.0122826 -1.0414029
-0.33123401 -3.0169778 -1.0403838
-0.41597697 -3.0077405 -1.0416459
0.51147348 -2.9928448 -1.0439185
-0.36998311 -3.0248506 -1.0319606
-0.43630275 -3.0172791 -1.0381639
0.52891469 -2.9921482 -1.0344765
1.3827736 -2.9845989 -1.0310942
-0.7971909 -3.019392 -1.0219694
-0.61398023 -3.0168087 -1.0244738
-0.54225874 -3.0118012 -1.0241474
-0.45424277 -3.010952 -1.0287062
-0.38772133 -3.0166171 -1.0229694
-0.68509078 -3.0122833 -1.0172071
-0.49161592 -3.0113842 -1.01349
-0.32199037 -3.0126536 -1.0101494
-0.30393785 -3.0171654 -1.0167005
-0.40512401 -3.0074513 -1.013373
0.49920556 -3.0006821 -1.0198414
-0.57924759 -3.0113449 -1.0056325
-0.51025486 -3.0125425 -1.0057317
-0.44280431 -3.0134883 -1.0017588
-0.35921791 -3.0167978 -1.0006962
-0.34011054 -3.010025 -1.003955
-0.42387486 -3.0095305 -1.0074039
-0.6689992 -3.015727 -0.99242824
-0.46080041 -3.0118313 -0.99386513
-0.3774873 -3.0169971 -0.99485165
-0.54695982 -3.0139437 -0.98894912
-0.47938508 -3.0148635 -0.98726076
-0.41306856 -3.0127118 -0.98065728
-0.39553034 -3.0162616 -0.98838067
-0.31318456 -3.01178 -0.98134679
-0.29525894 -3.0125329 -0.98643351
-0.43084863 -3.011986 -0.97359306
-0.34885281 -3.0112286 -0.97059375
-0.33080843 -3.0091455 -0.97532612
-0.4500277 -3.0216024 -0.96966922
-0.46673244 -3.0152497 -0.96012712
-0.3672806 -3.0170867 -0.96680903
0.47120187 -2.9938836 -0.964881
2.0264487 -2.9809141 -0.96396643
-0.40164855 -3.0109072 -0.95239174
-0.38423768 -3.0116379 -0.95896226
-0.28743321 -3.0160923 -0.95914197
-0.3042174 -3.0087206 -0.95201653
-0.33918279 -3.011009 -0.94251007
-0.32244253 -3.0164812 -0.94957846
0.50382072 -2.9962788 -0.94827449
1.3163784 -2.9854679 -0.94754899
1.989688 -2.9808946 -0.94682461
-0.45340821 -3.0106318 -0.93155318
-0.35610005 -3.0083776 -0.93609071
-0.39136958 -3.0173118 -0.92695045
-0.2962175 -3.0148408 -0.92585009
-0.27830094 -3.005162 -0.92729396
-0.42454013 -3.0130296 -0.91242319
-0.4077068 -3.012804 -0.9190743
-0.33026382 -3.0171402 -0.91660744
-0.31268951 -3.0102983 -0.9195618
-0.28839025 -3.0226157 -0.90024829
-0.27171344 -3.0214667 -0.9043206
-0.50445861 -3.0132368 -0.90901601
-0.36308184 -3.0118709 -0.90384942
-0.34630194 -3.0107098 -0.90917063
-0.39587072 -3.0104146 -0.89119029
-0.30423594 -3.0161605 -0.89354438
-0.3790586 -3.0073466 -0.89647973
-0.55479628 -3.0187273 -0.8847636
-0.41221583 -3.0106425 -0.88474238
-0.33672845 -3.0146751 -0.88286769
-0.42911598 -3.0156178 -0.87945837
-0.26291358 -3.0127864 -0.87363189
-0.44427648 -3.0092192 -0.87045604
-0.35215887 -3.0082333 -0.87539417
-0.52351362 -3.0182879 -0.86778104
-0.31112695 -3.0162618 -0.86102992
-0.29549578 -3.0189142 -0.86664498
-0.2790513 -3.0139408 -0.86970198
-0.38432357 -3.00963 -0.86398691
-0.36823192 -3.0084534 -0.86968273
-0.32654062 -3.0126603 -0.85487682
-0.41581839 -3.0091462 -0.85094154
-0.40006661 -3.0089099 -0.85745478
-0.43158874 -3.0103395 -0.84444231
-0.35753959 -3.0102403 -0.84321827
-0.27088997 -3.0173728 -0.84300745
-0.2549822 -3.0133445 -0.84597188
-0.34150195 -3.0062025 -0.84763187
-0.56989723 -3.0143878 -0.83982462
-0.38930658 -3.0173781 -0.83328736
-0.30145696 -3.0139666 -0.8329463
-0.2860412 -3.0137551 -0.83754677
-0.44696644 -3.0096366 -0.83712572
3.8824813 -2.9470038 -0.83460289
-0.33318976 -3.0249226 -0.82597786
-0.47760835 -3.0101516 -0.82227039
-0.31609055 -3.0074885 -0.8261655
-0.43385285 -3.0104828 -0.81138885
-0.26231718 -3.0157547 -0.81496716
-0.24730307 -3.0165079 -0.81919152
-0.34664461 -3.0098472 -0.81625229
2.2036304 -2.9592469 -0.81744683
-0.44949427 -3.0155087 -0.80564314
-0.30676487 -3.0125618 -0.80054337
-0.291269 -3.0056317 -0.80335832
-0.27637377 -3.0054176 -0.80779344
-0.4634507 -3.0100496 -0.79672933
-0.40654674 -3.0136719 -0.79309857
-0.3360987 -3.0120542 -0.79015023
-0.39094898 -3.0067306 -0.79760891
-0.32081684 -3.0060732 -0.79374534
-0.59794146 -3.0138755 -0.78659004
-0.26839155 -3.0150299 -0.78322673
-0.25409576 -3.0177016 -0.78807604
-0.35001084 -3.0065346 -0.78315115
-0.2387924 -3.0088418 -0.78951132
-0.37941507 -3.0118113 -0.77287436
-0.29686734 -3.0116222 -0.77335012
-0.36481041 -3.0096495 -0.77826804
-0.28213862 -3.0075562 -0.7768417
-0.40822488 -3.0151937 -0.76109111
-0.32525507 -3.0111172 -0.76331127
-0.31145206 -3.0147316 -0.76934928
-0.46355534 -3.0099423 -0.76393026
-0.2308532 -3.0076141 -0.76182401
-0.35348856 -3.0125551 -0.75283873
-0.27380255 -3.0178945 -0.75263202
-0.2596353 -3.0157485 -0.75627774
-0.33903989 -3.0084689 -0.7573052
-0.24471237 -3.0049338 -0.75738436
-0.30062097 -3.0087094 -0.74113333
-0.32818687 -3.0111074 -0.73173708
-0.31544426 -3.0195422 -0.73902869
-0.22350883 -3.0138419 -0.73621112
-0.39418074 -3.0075448 -0.73352796
-0.23670003 -3.0082593 -0.73117721
-0.25097561 -3.0171695 -0.729626
-0.26374394 -3.0086973 -0.72341973
3.3714387 -2.9522049 -0.72597742
-0.35474396 -3.0077455 -0.71996707
-0.27689472 -3.0060251 -0.71847582
3.3135009 -2.9530137 -0.71366239
-0.33023572 -3.0118062 -0.70061207
-0.22883579 -3.0132728 -0.70545441
-0.38107771 -3.0063338 -0.70781177
-0.31683606 -3.0086627 -0.70499629
-0.30356711 -3.0074565 -0.70963168
-0.24163173 -3.0096192 -0.70086849
-0.21525492 -3.0072489 -0.70742637
-0.25489977 -3.0127473 -0.69773436
-0.52853215 -3.0091729 -0.69105631
-0.20811674 -3.0158894 -0.68253255
-0.43287131 -3.007441 -0.68184632
-0.42036596 -3.0090814 -0.68912405
-0.28013134 -3.0064304 -0.687756
-0.30611402 -3.0117509 -0.67973667
-0.23354393 -3.0172982 -0.67597675
-0.22053963 -3.0122254 -0.67831892
-0.38129267 -3.009949 -0.6773746
-0.24542259 -3.008791 -0.6702106
-0.27066821 -3.0131366 -0.66310364
-0.34299803 -3.0057347 -0.66280442
-0.25790733 -3.009021 -0.6663084
-0.29501694 -3.01071 -0.65359366
-0.21233453 -3.0118861 -0.65148121
-0.43038672 -3.0072289 -0.65060061
-0.28220794 -3.0046437 -0.65676588
-0.19998819 -3.009722 -0.65418494
3.6430156 -2.9512489 -0.65017611
-0.2366714 -3.0133095 -0.64479536
-0.22507237 -3.0198882 -0.64990401
-0.31899071 -3.0083048 -0.64329392
-0.30670813 -3.0061088 -0.6477682
-0.26051518 -3.0118334 -0.63665414
-0.34299985 -3.0098038 -0.63307977
-0.33077487 -3.0066257 -0.63774323
-0.29596159 -3.012574 -0.62363112
-0.21577053 -3.0105391 -0.62127584
-0.20414798 -3.0112879 -0.62470424
-0.19264928 -3.0149641 -0.62859106
-0.25047159 -3.0112414 -0.61048967
-0.23935348 -3.0158744 -0.61533213
-0.3186734 -3.0082333 -0.61293161
-0.22732735 -3.0097942 -0.6176582
-0.18470378 -3.0102086 -0.60088181
-0.33023983 -3.009475 -0.60803688
-0.27265146 -3.0049131 -0.60090387
-0.26139981 -3.0056386 -0.60526395
3.0490413 -2.9553616 -0.60125995
-0.28409457 -3.0071158 -0.59697729
-0.2178804 -3.0040567 -0.5902223
-0.20707138 -3.0087066 -0.59450263
-0.19591741 -3.0094557 -0.59778327
-0.31781501 -3.0118101 -0.58365178
-0.25142819 -3.0106368 -0.58058327
-0.22903864 -3.0052691 -0.58699232
-0.26275805 -3.015769 -0.57759649
-0.17708242 -3.0100722 -0.57430303
-0.38584274 -3.0089753 -0.5793153
-0.33906266 -3.0075002 -0.57232738
6.5579581 -2.8861153 -0.57766902
-0.28401849 -3.0123813 -0.56829578
-0.22058317 -3.0188229 -0.56376112
-0.20963414 -3.0146725 -0.56627345
-0.19897681 -3.0154173 -0.56959009
-0.25151151 -3.010762 -0.55110127
-0.30470902 -3.0070643 -0.55792981
-0.23015794 -3.0053713 -0.55757082
-0.33569783 -3.0059702 -0.54247457
-0.18981449 -3.0052423 -0.54139143
-0.17982323 -3.0099111 -0.54514164
-0.29260877 -3.0118279 -0.53418177
-0.21008678 -3.0037572 -0.53492248
-0.20024072 -3.0084171 -0.53899294
-0.23070055 -3.0101302 -0.5292806
-0.16241054 -3.0188611 -0.52313608
-0.25032559 -3.0067244 -0.52113092
-0.18201946 -3.0163772 -0.51740074
-0.19096097 -3.0028713 -0.51204258
-0.17143391 -3.0033836 -0.51770133
-0.29924539 -3.0120304 -0.50049514
-0.2896845 -3.0117407 -0.50508463
-0.45070496 -3.0081861 -0.50265729
-0.22022468 -3.0075362 -0.50335193
-0.21067826 -3.0082669 -0.50682449
-0.20093714 -3.0070391 -0.5097841
-0.23996706 -3.0168881 -0.49786529
-0.17322147 -3.0105863 -0.49032333
-0.15476146 -3.0170047 -0.49646059
-0.22962944 -3.0058289 -0.49955034
-0.16378428 -3.0093687 -0.49268055
-0.20140794 -3.0162318 -0.48267451
-0.18267733 -3.0127914 -0.48798513
-0.25779438 -3.0056484 -0.48811108
-0.19153462 -3.0061514 -0.48395088
-0.21981011 -3.017725 -0.47641745
-0.34526944 -3.0096631 -0.47457632
-0.28565866 -3.0094483 -0.47598395
-0.24645077 -3.0136147 -0.46485323
-0.17389956 -3.0146182 -0.46249264
-0.15621871 -3.0170965 -0.46793467
-0.16457595 -3.0064995 -0.46371514
-0.14660721 -3.0040624 -0.4680233
-0.19123261 -3.0101876 -0.45616686
-0.18215273 -3.0050144 -0.45817435
-0.15688373 -3.0199087 -0.44004095
-0.14809537 -3.0137539 -0.44136438
-0.13948241 -3.011548 -0.44317621
-0.28486031 -3.0055869 -0.44483125
-0.22544453 -3.0063117 -0.44268352
-0.21669002 -3.003087 -0.44558421
-0.20816304 -3.0038073 -0.44897866
-0.17335674 -3.0134923 -0.43400759
-0.23407623 -3.0085571 -0.43948168
-0.18122877 -3.0058525 -0.43010595
-0.16474919 -3.0093012 -0.43591806
-0.20622616 -3.0115662 -0.42208198
3.4233143 -2.9535253 -0.42581427
-0.14426979 -3.0157089 -0.41464517
-0.13207406 -3.0128856 -0.41734019
-0.28296 -3.0044374 -0.4146685
-0.21392979 -3.0059199 -0.41799006
-0.15589698 -3.0086637 -0.41020936
-0.1717712 -3.0101504 -0.40546817
-0.24549115 -3.004108 -0.40351987
-0.17955463 -3.0094197 -0.40269002
-0.16372144 -3.0069354 -0.40753478
-0.21004938 -3.0055625 -0.3902193
-0.20263347 -3.0082469 -0.39376503
-0.18697774 -3.0037558 -0.39906925
-0.2325283 -3.0064361 -0.38013428
-0.22524518 -3.0081139 -0.38389191
-0.24028334 -3.0116787 -0.37721181
-0.27528283 -3.0044169 -0.35628277
-0.23333071 -3.008157 -0.34975499
0.081973486 -3.0017545 -0.3493959
-0.20633078 -3.0064235 -0.33287269
0.082557753 -3.0062566 -0.32186443
0.075015478 -2.9984312 -0.32342824
3.0366983 -2.9558392 -0.32387364
0.089712821 -3.0011494 -0.3189052
0.094611518 -3.0033908 -0.31732014
0.077082671 -3.0003324 -0.29515976
0.090172291 -2.9980981 -0.29003248
3.3761284 -2.953527 -0.29929498
-0.24013536 -3.0037651 -0.2827318
0.096821576 -3.0063441 -0.25857437
0.10060212 -3.0056293 -0.25652578
3.6262684 -2.951674 -0.25671244
0.092532739 -2.9989021 -0.23016596
0.10575081 -3.0021143 -0.22213693
-0.40153086 -3.0064287 0.53658366
-0.48341227 -3.0084062 0.58327901
-0.40749288 -3.0058868 0.72665
-0.49129382 -3.0085959 0.74807227
-0.40552139 -3.0060215 0.79099637
-0.47760835 -3.0101516 0.82227039
-0.46307841 -3.0146461 0.83119118
-0.42844546 -3.0108762 0.87802041
-0.39587072 -3.0104146 0.89119029
-0.37989068 -3.0139852 0.89853919
-0.48676297 -3.0073347 0.91523087
3.4903903 -2.9352877 0.94689411
-0.61757457 -3.0121572 0.95016378
-0.46586519 -3.0096116 0.95826727
-0.29461485 -3.0059342 0.98418736
-0.37608355 -3.0057209 0.99099487
-0.44266742 -3.0125515 1.0014365
-0.33979347 -3.007206 1.0029792
-0.32159039 -3.0088949 1.008841
-0.30365503 -3.0143461 1.0157142
-0.38760155 -3.0156803 1.0226403
-0.28539276 -3.0179222 1.0216336
-0.36804482 -3.0089271 1.0263314
-0.52328122 -3.0106432 1.0324397
-0.34976715 -3.0134189 1.0336751
-0.33184835 -3.0225978 1.0423933
-0.3972463 -3.0103433 1.0491391
-0.31159958 -3.011174 1.0434202
-0.29267767 -3.0128677 1.0488212
-0.41597697 -3.0077405 1.0416459
-0.37883785 -3.016685 1.0576767
-0.35824966 -3.0062268 1.0597816
-0.33979067 -3.0144446 1.0683715
-0.71949846 -3.0137112 1.0701903
-0.42751917 -3.0123827 1.0717144
-0.3004252 -3.0122201 1.0777354
-0.31945321 -3.0067954 1.0708089
-0.40851828 -3.01684 1.0801085
-0.38839027 -3.0138588 1.0854189
-0.36796585 -3.009021 1.0896848
-0.53047115 -3.011307 1.0968152
-0.45761645 -3.0066891 1.0909172
-0.43791372 -3.0083473 1.0987931
-0.34793094 -3.0079091 1.0949972
-0.51022524 -3.010174 1.1048751
-0.32831964 -3.0114534 1.1017299
-0.3084766 -3.0140712 1.1077837
-0.41768098 -3.0072284 1.1052829
-0.58609068 -3.0209184 1.1101724
-0.56438494 -3.0133369 1.1167148
-0.39844325 -3.0144591 1.1146148
-0.48999777 -3.0099702 1.1129397
-0.37737694 -3.0087135 1.1186494
-0.47178373 -3.0236301 1.1259824
-0.81350738 -3.015758 1.1249471
-0.54459912 -3.0168073 1.1271127
-0.35814467 -3.0187345 1.1284047
-0.44886404 -3.0077312 1.1273197
-0.33754247 -3.0185604 1.1338937
-0.31655914 -3.0156085 1.1379482
-0.52254432 -3.008317 1.1325443
-0.42838806 -3.0084667 1.1347003
-0.57823873 -3.0139081 1.1451193
-0.38740563 -3.0127237 1.1495143
-0.50167632 -3.0071959 1.1404526
-0.48199791 -3.0143652 1.1512635
-0.46096399 -3.0141754 1.1588411
-0.36664978 -3.0143964 1.1562237
-0.55628002 -3.0081975 1.1521626
-0.34482017 -3.0077586 1.1592741
-0.69274509 -3.0176806 1.1608986
-0.61268389 -3.0107143 1.1623645
-0.32437488 -3.0140586 1.1671169
-0.43886691 -3.0075469 1.1634908
-0.49338242 -3.012192 1.1794411
-0.39651856 -3.009032 1.177561
-0.37538844 -3.0116222 1.1848066
-0.47113761 -3.0074205 1.1853443
-0.35519493 -3.0234215 1.1954551
-0.45128214 -3.019161 1.1976013
-0.62692839 -3.0097413 1.190321
-0.33160087 -3.0066886 1.1940846
0.39746758 -3.0070417 1.196878
-0.6051774 -3.0095344 1.2003518
-0.50478929 -3.0097187 1.2076741
-0.48319897 -3.0122766 1.2167653
-0.40748933 -3.0188119 1.2113256
-0.38484031 -3.0140586 1.2157222
-0.56116819 -3.0091379 1.2192949
-0.53957176 -3.012588 1.2297286
-0.36259356 -3.0129776 1.2212572
-0.51714957 -3.0124037 1.2382668
-0.43923879 -3.0155797 1.2330937
-0.59672332 -3.0089567 1.2388934
-0.39385736 -3.0125058 1.2452157
-0.47372368 -3.0238798 1.259259
-0.55219513 -3.0131104 1.2594675
-0.37198702 -3.0187402 1.254016
-0.34950033 -3.0213239 1.2608864
-0.69623083 -3.0194941 1.2696871
-0.61096072 -3.0118637 1.2694257
-0.52940732 -3.0138361 1.2686058
-0.44877627 -3.0100605 1.2607926
-0.42621779 -3.0126255 1.268966
-0.50600398 -3.0118477 1.2761742
0.44882727 -3.0026536 1.275429
-0.64818692 -3.0119054 1.2885344
-0.58835155 -3.0143833 1.2803497
-0.48263228 -3.0107708 1.2837352
-0.35665926 -3.0121543 1.2876039
-0.37960675 -3.0095778 1.2805892
-0.46051723 -3.0187614 1.2948908
-0.4357996 -3.0104432 1.2984557
-0.54074597 -3.009511 1.2966701
-0.41356075 -3.0202553 1.3096625
-0.60141128 -3.013329 1.3096824
-0.49444357 -3.0154905 1.3161864
-0.57688874 -3.0095556 1.317642
-0.72593993 -3.0136418 1.3255618
-0.3655535 -3.0172338 1.3207976
-0.55275345 -3.0084834 1.3263896
0.39290601 -3.0051973 1.3281714
-0.7923606 -3.0217211 1.3334377
-0.85581017 -3.0134933 1.3314204
-0.70158952 -3.0125568 1.3368516
-0.52894956 -3.010113 1.3359495
-0.44659933 -3.0160732 1.3316939
-0.42279485 -3.0186272 1.3398659
-0.96742427 -3.0169911 1.3447632
-0.76582563 -3.0126476 1.3422282
-0.50631958 -3.0198367 1.3488154
-0.39859554 -3.0193803 1.3468111
-0.48125076 -3.016083 1.3551054
-0.37416339 -3.0192347 1.3529301
-0.56763679 -3.0223398 1.363227
-0.80843002 -3.0183716 1.3612708
-0.65368295 -3.0166414 1.3610438
-0.45610777 -3.0123339 1.3609577
-0.78477973 -3.0225868 1.3764222
-0.91782475 -3.0156693 1.375586
-0.62893343 -3.0164649 1.3714981
-0.51688546 -3.0157518 1.377845
-0.43205205 -3.0166781 1.3701448
-0.4074437 -3.0183299 1.3776683
-0.75708616 -3.0117986 1.3841394
-0.57789052 -3.010783 1.388606
-0.4912957 -3.0120175 1.3842779
-0.8252461 -3.0173285 1.3903971
-0.46562991 -3.0082877 1.390264
-0.52762067 -3.0122492 1.4073398
-0.44198364 -3.0188808 1.4026296
-0.416686 -3.019634 1.4099001
-0.61649364 -3.0133331 1.4109453
-0.50238866 -3.0138805 1.4164943
-0.39114597 -3.019496 1.4163101
-0.59018755 -3.0096235 1.4190421
-0.74757475 -3.0123682 1.4271028
-0.65496296 -3.0102072 1.4299613
-0.47656778 -3.0128434 1.4239273
-0.56526566 -3.0139024 1.4305563
-0.45129552 -3.0162656 1.4330875
-0.72352815 -3.0201018 1.4430069
-0.79138023 -3.0199265 1.4486371
-0.62918943 -3.0109274 1.4408548
-0.53995353 -3.0172989 1.441224
-0.42584035 -3.0196917 1.441825
-0.3989172 -3.0133202 1.4453126
-0.51247716 -3.0091693 1.4457934
-0.69530988 -3.0111434 1.4503131
-0.60410362 -3.0160677 1.4534857
-0.7657243 -3.0223725 1.4627233
-0.48842162 -3.0223324 1.4604096
-0.83269608 -3.0139842 1.4628656
-0.4611676 -3.0168722 1.4653776
-0.54994792 -3.0087047 1.4686832
-0.43553561 -3.0229473 1.4756364
-0.64247495 -3.0108209 1.4721534
-0.87699997 -3.015517 1.4800373
-0.71096623 -3.0159125 1.4838881
-0.61667651 -3.0150619 1.4846047
-0.52486968 -3.0173914 1.481784
-0.49920201 -3.0243168 1.4935882
-0.99552941 -3.0175781 1.4952407
-0.84987128 -3.0144687 1.4938505
-0.58926052 -3.0122774 1.493065
-0.47093976 -3.0162365 1.4973408
-0.65637565 -3.0129743 1.5049014
-0.56270635 -3.0147705 1.5037369
-0.82556576 -3.0246851 1.5129306
-0.7269184 -3.0211346 1.5180978
-0.53532815 -3.0137532 1.5121576
-0.50914544 -3.0206497 1.524191
-0.69699776 -3.0105348 1.5243731
-0.60148865 -3.0118067 1.5249203
-0.4822782 -3.024914 1.5344272
-0.76824546 -3.0156925 1.5346909
-0.67053217 -3.0156066 1.538252
-0.57471359 -3.016041 1.5367265
-0.45375359 -3.0195155 1.53917
-0.84063363 -3.0187016 1.5412693
-0.73937064 -3.0112052 1.5448017
-0.64230752 -3.0137212 1.5480437
-0.42532635 -3.0149994 1.5438728
-0.54896253 -3.0272768 1.5517547
-0.51865751 -3.0140276 1.5534661
-0.61499381 -3.0170629 1.5601026
-0.49128684 -3.0182753 1.5638932
-0.68436557 -3.0161042 1.5708416
-0.55822533 -3.015928 1.5786557
-0.46303362 -3.0181534 1.5715334
2.8010554 -2.947113 1.5744667
-0.53045505 -3.0201542 1.5897752
-0.43528306 -3.022409 1.5810318
-0.90356505 -3.019551 1.5907166
-0.62750232 -3.0166945 1.5926882
-0.50101811 -3.015681 1.5957227
-0.69845146 -3.0170751 1.6040258
-0.77183831 -3.0204973 1.6144288
-0.6700083 -3.0195239 1.6166055
-0.56941867 -3.0147061 1.6111636
-0.44326621 -3.0154502 1.6108253
-0.74283332 -3.0212121 1.6273214
-0.54139775 -3.0206473 1.6234535
-0.71138841 -3.0125036 1.6345034
-0.6103366 -3.0140972 1.6345999
-0.5116505 -3.0179322 1.6304996
-0.45319217 -3.0211742 1.6478695
-0.78633094 -3.0172338 1.6455082
-0.68145227 -3.0106575 1.6449304
-0.58163893 -3.0182841 1.6466538
-0.55191284 -3.0181673 1.6558156
-0.52322263 -3.0249476 1.6683505
-0.72638869 -3.0161109 1.6698418
-0.62252611 -3.0138383 1.6680902
-0.88058335 -3.0242136 1.6881468
-0.77011579 -3.0117726 1.6885988
-0.66734737 -3.0226829 1.6964881
-0.56325138 -3.0196095 1.690712
-0.53336346 -3.0229299 1.7015195
-0.92560697 -3.0148611 1.7010809
-0.63476026 -3.0131869 1.7017034
-0.74353796 -3.0277579 1.7102429
-0.71166283 -3.0233951 1.719704
-0.50283557 -3.0236828 1.7103392
-0.47202116 -3.0235825 1.7181404
-0.8172344 -3.0163479 1.7117809
-0.60388654 -3.0122221 1.7112656
-0.78630489 -3.0162194 1.7249602
-0.57415509 -3.0180826 1.7242701
-0.54185319 -3.011158 1.7292881
-1.1078521 -3.0180035 1.7347717
-0.75410336 -3.0118792 1.7351334
-0.51199156 -3.0187321 1.74227
-0.48034614 -3.0169311 1.7492095
-0.72600245 -3.0252557 1.7551959
-0.91234046 -3.0157487 1.7504737
-0.58525699 -3.0170181 1.7584382
-0.96215475 -3.0172966 1.7698172
-0.55280238 -3.0126789 1.7651014
-0.77078849 -3.020082 1.7744411
-0.66009212 -3.0140712 1.771302
-0.85349339 -3.0321703 1.7895386
-0.59789097 -3.0231469 1.7973218
-0.53301132 -3.0229621 1.8155746
-0.64011478 -3.0129502 1.81648
-0.86802226 -3.0260372 1.8206959
-0.50021094 -3.022032 1.8233459
-1.1176775 -3.0191729 1.821555
-0.75260365 -3.0184872 1.8210361
-0.9162128 -3.0212989 1.838069
-0.7217595 -3.0267227 1.8382367
-0.60959244 -3.0237591 1.833335
-0.7988143 -3.0133784 1.8404659
-0.68619192 -3.015784 1.8430107
-0.54194355 -3.015197 1.8467249
-0.65480167 -3.0240295 1.8591338
-0.50972205 -3.0209858 1.8588419
-0.96607751 -3.0186245 1.8559386
-0.76563972 -3.0132749 1.8533015
-0.84779167 -3.0144813 1.8630618
-0.61912525 -3.0130999 1.862674
-0.73405355 -3.0206382 1.8702638
-0.58545309 -3.012181 1.8718971
-0.70018542 -3.0197155 1.8814574
-0.66577661 -3.0171399 1.8910073
-0.63417643 -3.0286622 1.9089968
-0.74636424 -3.0141854 1.9023342
-0.95283091 -3.0275078 1.9131471
-0.83146358 -3.0214713 1.9173827
-0.59772742 -3.0178046 1.9120445
-0.91441882 -3.0143766 1.9201937
-0.67786849 -3.0148375 1.9261248
-0.56366968 -3.0193868 1.9224931
-0.79779565 -3.0246544 1.9328903
-0.52942151 -3.0209725 1.9323614
-0.87958336 -3.013463 1.9344671
-0.76074576 -3.0155551 1.9397993
-0.6446324 -3.0213511 1.9411769
-0.96677071 -3.0157051 1.941728
-0.60908103 -3.0179794 1.9491806
-0.72780812 -3.0236633 1.9573503
-0.84542465 -3.0158117 1.9502729
-1.0221162 -3.0221686 1.9659206
-0.934017 -3.022886 1.9622221
-0.69018447 -3.0129354 1.961893
-0.65722394 -3.02351 1.9799298
-0.74261069 -3.0285871 1.9980199
-0.95374697 -3.0308151 2.0045331
-1.2261835 -3.024061 2.0021396
-1.041235 -3.0231705 2.0034435
-0.8272472 -3.0226195 2.0057852
-0.58654761 -3.0266504 2.0022779
-0.70348626 -3.0146732 2.000524
-1.095171 -3.0190039 2.0199845
-1.0027735 -3.015887 2.0155447
-0.63294399 -3.0218658 2.0272326
-0.87690473 -3.0153689 2.0244353
-0.75247175 -3.0127597 2.0251129
-0.96724749 -3.018193 2.0334852
-0.9308992 -3.0189078 2.0497243
-0.84138548 -3.0185063 2.0407789
-0.71723282 -3.017545 2.0404472
-0.55955571 -3.0193052 2.0448236
-0.80448627 -3.0176291 2.0537474
-0.64306939 -3.014185 2.0603514
-1.1737044 -3.0217466 2.0780609
-0.76941532 -3.0247958 2.071665
-0.60788244 -3.0230281 2.0766811
-0.72988707 -3.0150859 2.0771976
-0.85758847 -3.021152 2.0808828
-0.69241357 -3.0142231 2.0882323
-1.0412288 -3.0204189 2.0943897
-0.820629 -3.0226817 2.0958004
-0.91077375 -3.0201671 2.1042259
-0.65702957 -3.0238147 2.1060131
-0.78195906 -3.0186255 2.1061287
-0.61925948 -3.0237637 2.1163576
-0.74708796 -3.0305467 2.1271527
-0.87387246 -3.0232728 2.121187
-0.5811668 -3.022913 2.1254773
-0.96483773 -3.0179021 2.1259515
-1.2556183 -3.0238738 2.1358237
-1.0620974 -3.0261843 2.1371768
-0.83490056 -3.0200367 2.1329792
-0.70631814 -3.0193119 2.1310263
-0.92638928 -3.0170465 2.1410136
-0.79577357 -3.0168056 2.1440837
-0.66756827 -3.0168664 2.1404836
-0.88931257 -3.0217121 2.1594026
-0.62919307 -3.0168209 2.1510003
-0.59142524 -3.0207722 2.1637623
-0.71973807 -3.0214641 2.1723285
-0.84921771 -3.0169268 2.1702766
-0.94424152 -3.0205019 2.1830709
-0.81195259 -3.0231786 2.1885352
-1.1389226 -3.0228579 2.1951661
-1.0016015 -3.0226691 2.2085242
-0.60345113 -3.0268965 2.2086437
-0.86514026 -3.0188279 2.2117565
-1.0588751 -3.0204113 2.2299812
-0.82780397 -3.0273895 2.2320867
-1.4294711 -3.0251524 2.2494698
-0.92271596 -3.0248921 2.242079
-0.78595793 -3.020304 2.2400391
-1.0175313 -3.0164964 2.2443032
-1.3272074 -3.031055 2.2598195
-1.1203555 -3.0260661 2.2566235
-0.88113892 -3.0201828 2.2534342
-0.74657869 -3.0233965 2.2549353
-0.97848451 -3.020303 2.2637424
-0.83943701 -3.0154784 2.2640481
-1.0814537 -3.0306051 2.2784011
-1.38967 -3.026571 2.2742267
-0.6657626 -3.024116 2.2785332
-0.79905808 -3.0162187 2.2780848
-1.1373736 -3.018095 2.2915158
-0.90040272 -3.0317905 2.3036182
-0.85584784 -3.0201802 2.3091364
-0.71739835 -3.0169353 2.3034706
-0.6773777 -3.0223513 2.3190401
6.323555 -2.8837345 2.3169768
-1.2044835 -3.031616 2.3238366
-1.5914513 -3.0267751 2.3221169
-0.81488657 -3.021692 2.3240542
-0.95450139 -3.019743 2.3207505
-1.2639233 -3.0218811 2.3373613
-0.91197342 -3.0166435 2.3337607
-0.77483547 -3.0278382 2.3419008
-1.015292 -3.0248013 2.3504553
-0.73216891 -3.0247293 2.3517828
-0.9719336 -3.0209644 2.3638968
-0.82996953 -3.0234818 2.3678582
-0.64847422 -3.0277822 2.376672
-1.0740441 -3.019403 2.371233
-1.0317793 -3.0201232 2.389297
-0.9298017 -3.0216951 2.3802052
-0.78757703 -3.0234604 2.3811154
-0.74552983 -3.0257416 2.3954844
-0.88894147 -3.0277536 2.4000604
-0.70126367 -3.0196002 2.4023404
-0.99165785 -3.0283957 2.4127162
-0.65797621 -3.0180588 2.4121342
-0.80115646 -3.0216348 2.4229083
-0.90247804 -3.020051 2.4372518
6.2935538 -2.8891933 2.4319954
-0.75914115 -3.0269463 2.4400051
-1.0057949 -3.0179114 2.4477065
-0.85799879 -3.0170181 2.4492612
-0.71569055 -3.0276992 2.4526527
-1.3325844 -3.022768 2.4664941
-1.1142228 -3.0241318 2.4614756
-0.6711815 -3.0246542 2.4614167
-0.81478548 -3.0192721 2.4648545
-1.517326 -3.0275435 2.4866819
-1.1791842 -3.0259376 2.4879849
-0.9194355 -3.0231225 2.4838421
-1.0262051 -3.0255775 2.4982233
-0.727135 -3.0222836 2.4925644
-0.87348258 -3.0178709 2.4942293
-1.1362455 -3.0303388 2.5109396
-1.0902132 -3.0273726 2.5269585
-0.93510622 -3.0210989 2.526897
-1.2024745 -3.0321898 2.537931
-1.4275979 -3.0274649 2.5360968
-1.0429449 -3.0214624 2.5396559
-0.78713053 -3.0298505 2.5315542
-1.6164968 -3.0266123 2.5487735
-0.74152994 -3.0283566 2.5427654
-0.84528691 -3.0240703 2.558728
-0.69628465 -3.0291133 2.5551031
-0.99967176 -3.0280917 2.5622227
-1.1112132 -3.0321622 2.5764315
-0.80092907 -3.029278 2.5766873
3.0314209 -2.9475214 2.5725896
-1.0656116 -3.0336189 2.595758
-1.2871984 -3.0209229 2.5987022
-1.0137975 -3.0175285 2.5990217
-1.5241686 -3.0258372 2.6009665
-0.86012769 -3.0236769 2.6044033
-0.70832157 -3.0278156 2.6000254
-1.2453465 -3.0324216 2.6298704
-1.4768349 -3.0243998 2.6249228
-0.97011656 -3.026309 2.6230872
-1.0804424 -3.0224614 2.6324656
-0.76833504 -3.0296025 2.636246
-0.92123133 -3.0197361 2.6329017
-1.4294479 -3.0236757 2.6486678
-1.1948744 -3.0237849 2.6426225
-0.72075486 -3.0274105 2.6464272
1.9638366 -2.9630806 2.6420376
-1.3166022 -3.0365515 2.6589887
-1.0341002 -3.0246427 2.651912
-0.87587321 -3.0256004 2.652863
-0.98669189 -3.024653 2.6686275
-0.82889342 -3.0270808 2.6681545
-1.152469 -3.0367339 2.673624
-1.3839161 -3.0279076 2.675993
-1.2692901 -3.0372603 2.6812174
-1.1017869 -3.0288277 2.6852949
-0.93900555 -3.024668 2.6845217
2.8419268 -2.9488025 2.6808295
-1.2161746 -3.0244231 2.6904633
-0.73253381 -3.0234711 2.6903868
-1.0545238 -3.0309968 2.7051172
-1.3366131 -3.0293176 2.7000172
-0.8923322 -3.0290399 2.7035184
-1.1683168 -3.0251434 2.7109592
-0.84305888 -3.0254366 2.7144878
-1.2885818 -3.0300264 2.7225888
-1.005944 -3.0302939 2.7215223
-0.95461565 -3.021683 2.729857
-1.1214161 -3.0294354 2.7338789
-0.74577469 -3.0247703 2.7398024
-1.2387201 -3.0272059 2.7411015
-1.0745627 -3.0351589 2.7573202
-0.90844637 -3.0303402 2.7531128
-1.1924617 -3.0342898 2.7678411
-1.0236261 -3.0301886 2.7701035
-0.80955124 -3.028965 2.779984
-1.1413975 -3.0300658 2.7833347
-0.97347444 -3.0280757 2.7846267
-1.0903991 -3.0265539 2.7985759
-0.92181927 -3.0216882 2.7942705
-0.87359971 -3.0274301 2.8143821
-1.0421091 -3.0315323 2.8208849
-0.99106026 -3.029444 2.8356996
-0.94023997 -3.0287747 2.8509636
-0.88959366 -3.0295238 2.8666961
-0.78713763 -3.0296195 2.894171
1.9193705 -2.9619048 3.1097972
1.9016341 -2.9667244 3.203423
1.8227142 -2.9687438 3.3276215
3.9758611 -2.9321389 3.6099923
1.3968269 -2.9747183 3.6808696
1.8676494 -2.9684584 3.7055638
1.486297 -2.9729598 3.7204375
1.6745704 -2.9729362 3.8022563
2.6356273 -2.9582665 3.8009279
1.6385345 -2.973618 3.9015682
2.6203125 -2.960073 3.9220798
1.8337508 -2.9631109 3.9732754
1.2961171 -2.9778759 4.031836
1.4610684 -2.9758103 4.0565386
2.7177048 -2.953078 4.0664697
1.8030082 -2.9717014 4.0907321
1.4879799 -2.9746675 4.130477
1.1774892 -2.9787974 4.1496496
1.3451617 -2.9778521 4.1827793
1.5900819 -2.9766741 4.1843162
1.2717403 -2.9763353 4.2027087
2.7091117 -2.9642572 4.2094064
1.4426595 -2.9742353 4.2323356
1.2953168 -2.9751701 4.2798238
1.7996993 -2.9735746 4.2812486
1.72543 -2.9743004 4.3123126
1.3961368 -2.9764888 4.3396649
1.2437187 -2.9741273 4.3806195
1.4228073 -2.9761624 4.4217482
1.6072817 -2.9784424 4.4582562
1.2700422 -2.9798431 4.4724202
1.7891986 -2.967648 4.4701452
1.529693 -2.9786456 4.4850993
2.5850856 -2.9624999 4.5164709
1.6387799 -2.978653 4.5447969
1.4798599 -2.9785483 4.5973382
1.7490191 -2.9746552 4.598362
1.5081612 -2.976876 4.6844406
1.4239322 -2.971355 4.7005062
1.3419613 -2.9710631 4.7232318
1.7033088 -2.9769802 4.7220888
3.2620068 -2.9471121 4.8734307
3.663568 -2.9420061 4.8976579
4.2565265 -2.9272401 4.9305358
4.4372902 -2.9223905 4.9615517
