# .PCD v0.7 - Point Cloud Data file format
VERSION 0.7
FIELDS x y z
SIZE 4 4 4
TYPE F F F
COUNT 1 1 1
WIDTH 829
HEIGHT 1
VIEWPOINT 0 0 0 1 0 0 0
POINTS 829
DATA ascii
-1.1690174 -2.2883282 -1.2648839
0.32539889 -2.3528867 -1.2578719
-1.8999327 -2.2544262 -1.2563572
0.38952553 -2.3568084 -1.2416339
-1.6309694 -2.2723429 -1.201942
0.52376491 -2.3617194 -1.1640012
0.59619159 -2.3672469 -1.161006
0.57312167 -2.3538165 -1.16491
0.54349035 -2.3618972 -1.1547661
-0.39015314 -2.3114443 -1.1579703
0.56453222 -2.3682907 -1.1480521
0.53336382 -2.3681707 -1.1340035
0.51131934 -2.3555145 -1.1373117
0.5507189 -2.3603399 -1.120942
0.57035094 -2.3632073 -1.1124068
0.59030539 -2.3678629 -1.104297
0.51990545 -2.3590088 -1.1064099
0.63782817 -2.3557863 -1.1000968
0.53903764 -2.3609908 -1.0980161
0.55637139 -2.3558195 -1.086115
0.58347195 -2.3700898 -1.0495743
0.5349924 -2.3680172 -1.045907
0.51422358 -2.3542724 -1.0493158
0.67935151 -2.35917 -1.0444868
0.55038393 -2.3583009 -1.0322767
2.2161214 -2.4274502 -1.004984
0.65083086 -2.3611345 -1.0022031
0.53722 -2.3545225 -1.0085285
0.6994701 -2.3603396 -0.99914372
0.52413028 -2.3504527 -0.98491389
0.57071632 -2.3531623 -0.98840398
0.54262614 -2.3588688 -0.97882718
0.51486266 -2.3634508 -0.96819472
0.57707381 -2.3657119 -0.96167332
2.448061 -2.4463906 -0.95584917
0.50281852 -2.363457 -0.94646651
2.6668987 -2.4528787 -0.93293744
0.56212205 -2.3586802 -0.93774545
0.51880038 -2.3498847 -0.90200132
0.55266088 -2.3660421 -0.88876325
0.50712937 -2.3539653 -0.88257754
0.52482396 -2.3671539 -0.87805605
0.49488255 -2.3550498 -0.86219537
0.53710949 -2.3563287 -0.86481625
0.55146217 -2.3556738 -0.85488296
2.7044842 -2.4590197 -0.84000051
2.4254119 -2.4346035 -0.84978682
0.52556938 -2.3639169 -0.84704602
0.49622205 -2.3533707 -0.83228344
0.55349356 -2.3626146 -0.82733256
0.510405 -2.354569 -0.82369494
2.2089643 -2.4348674 -0.81938821
0.49907824 -2.3626564 -0.80625325
0.53983593 -2.3635015 -0.80782741
0.51221424 -2.3610678 -0.79669553
0.52621162 -2.3641548 -0.78836989
0.56553108 -2.3585088 -0.78642368
0.69151038 -2.3580203 -0.77446502
0.51141679 -2.3589566 -0.76724076
0.54953027 -2.3516812 -0.76518989
2.4186728 -2.4423904 -0.75261915
0.48597953 -2.3625951 -0.757801
0.53870273 -2.3670523 -0.75082123
0.64770734 -2.3657322 -0.75279343
0.49808756 -2.3600686 -0.74820459
0.56354398 -2.3667512 -0.73089045
0.50942117 -2.3547306 -0.73756379
0.54915661 -2.3579993 -0.7383489
2.1981697 -2.43576 -0.72813439
0.64412946 -2.366996 -0.72365522
0.48402038 -2.3571868 -0.7281146
0.65506816 -2.3627048 -0.71071321
0.49522582 -2.3527768 -0.71802562
0.51994544 -2.3571782 -0.70096028
0.5454188 -2.3528616 -0.70850766
0.49531564 -2.3631895 -0.69324464
0.63853955 -2.3633742 -0.69359738
0.64998233 -2.3628139 -0.68180215
0.50570953 -2.3578386 -0.6827392
0.6225394 -2.3656845 -0.67702872
0.52903754 -2.3613455 -0.66495442
0.56733537 -2.3641984 -0.6635313
0.6317144 -2.357631 -0.66353422
0.64516228 -2.3664472 -0.65428561
0.51234627 -2.3532636 -0.64506251
0.55028307 -2.358269 -0.64459282
2.1749041 -2.425885 -0.63604742
0.49956024 -2.3629818 -0.6298247
2.4137092 -2.4439383 -0.61269176
0.54684597 -2.3657238 -0.61933142
0.64940566 -2.3674731 -0.61483836
0.50906354 -2.3585801 -0.61957252
0.49497741 -2.3633533 -0.60336834
0.55501336 -2.3566191 -0.60710341
2.1815417 -2.4212515 -0.59618914
0.5678761 -2.3683872 -0.59969586
0.65589786 -2.353797 -0.59968597
0.55064017 -2.3648427 -0.58245999
0.51311231 -2.35551 -0.58315653
0.66758275 -2.359865 -0.58909386
6.5551844 -2.6137543 -0.57742631
0.52284616 -2.3558939 -0.57379335
0.49889138 -2.3619847 -0.56790644
0.53434199 -2.3648708 -0.56616181
0.55244482 -2.3628261 -0.54585308
0.50086796 -2.3594766 -0.53268778
0.52578652 -2.3583915 -0.53900576
2.6727405 -2.4507816 -0.5281145
0.6338501 -2.36854 -0.52292275
0.54383814 -2.3601892 -0.51978493
0.5527426 -2.3615816 -0.51001447
0.5178352 -2.3574266 -0.51357907
0.49370953 -2.3611712 -0.5080294
0.56149209 -2.3629839 -0.50007325
0.47770447 -2.3622513 -0.49257344
0.65100354 -2.3685431 -0.49943209
0.48470554 -2.3568926 -0.48268515
0.54261553 -2.3568244 -0.48423392
2.4019182 -2.4457841 -0.475472
2.1801679 -2.4313989 -0.472765
0.52682036 -2.3638759 -0.47098023
0.51777709 -2.3586185 -0.47961944
0.55929404 -2.36063 -0.46467319
0.53359824 -2.3595312 -0.46041876
0.47661859 -2.3601227 -0.4592602
0.54127538 -2.3600037 -0.45059544
0.65361029 -2.3608243 -0.44896823
0.49902877 -2.3614902 -0.43242493
0.4749023 -2.3626616 -0.42741579
0.56447226 -2.3662925 -0.42105868
0.5051896 -2.3571377 -0.42240211
0.55503535 -2.3561747 -0.42970711
0.48061708 -2.356353 -0.41751546
0.68243772 -2.3620598 -0.40009785
0.48753357 -2.3568323 -0.40860772
0.62778175 -2.356971 -0.40038604
2.184469 -2.4192088 -0.392995
0.46992034 -2.3563185 -0.39484677
0.50803095 -2.3612399 -0.38153803
0.5327791 -2.3610871 -0.38452771
0.64286512 -2.3647921 -0.37816238
0.61491126 -2.3580782 -0.37751919
0.62275237 -2.3644032 -0.36701372
2.1662695 -2.4345975 -0.35014293
0.52637672 -2.361876 -0.35276306
0.62742823 -2.3592343 -0.35473573
0.60965025 -2.368228 -0.345283
0.63416719 -2.3627069 -0.3435539
0.48339012 -2.3630412 -0.33842596
0.51219785 -2.358058 -0.33093622
2.1693029 -2.4314857 -0.31113842
0.49365097 -2.3602641 -0.31979215
2.3725023 -2.4305837 -0.29679078
0.55854946 -2.3624969 -0.29214945
0.47904599 -2.3570049 -0.29907733
2.666455 -2.4554524 -0.2849595
0.48959827 -2.3620894 -0.28145024
0.5620842 -2.3573179 -0.28112197
2.176924 -2.4343789 -0.27277678
0.63942742 -2.3633535 -0.27520275
-0.10184023 -2.331049 -0.27063444
0.47383025 -2.358664 -0.26185814
-0.112336 -2.3216417 -0.26635447
2.3917329 -2.4456007 -0.25608504
-0.089833744 -2.3207045 -0.25079921
0.55650336 -2.3655803 -0.24169925
2.1707134 -2.4223065 -0.23285496
0.56423861 -2.365988 -0.22075696
-0.12185895 -2.3293464 -0.22054353
-0.11683349 -2.3211281 -0.22130278
0.6126712 -2.361392 -0.21297471
0.63412619 -2.3614602 -0.21994585
5.7510896 -2.5775473 -0.20240295
0.52169776 -2.3624592 -0.20527337
0.63813663 -2.3631516 -0.20825468
-0.095944278 -2.3336709 -0.20793226
0.47690931 -2.3612976 -0.19919489
-0.13425902 -2.3342524 -0.19357228
-0.07206323 -2.3319259 -0.19267449
-0.067852139 -2.3296955 -0.19337176
0.64352423 -2.3588641 -0.18407865
-0.10786561 -2.321378 -0.18071154
0.55472195 -2.3604414 -0.17146763
0.66915929 -2.3614135 -0.17772664
0.50638193 -2.3588908 -0.17843923
-0.11204109 -2.3276367 -0.17979772
-0.073205344 -2.3205488 -0.17005542
-0.069720693 -2.329257 -0.17178069
0.62556732 -2.3624578 -0.16685794
0.65019149 -2.3623385 -0.16023134
0.67196912 -2.3612301 -0.16525909
0.50917631 -2.3586545 -0.16882755
-0.10273434 -2.3297009 -0.16153221
0.46787107 -2.3617015 -0.15619926
0.55993527 -2.3600349 -0.15049402
0.60624748 -2.3620002 -0.15008606
-0.10994078 -2.3332908 -0.15898053
-0.0649575 -2.3257833 -0.15146935
-0.059754994 -2.3229198 -0.15241607
0.51492614 -2.3611505 -0.14962091
0.63037646 -2.3611386 -0.14334668
-0.099803813 -2.3311954 -0.14069295
-0.075384699 -2.3345275 -0.14949971
0.026485233 -2.3321202 -0.1423109
0.031716395 -2.3368547 -0.14041057
-0.13622409 -2.3240483 -0.14483956
0.6338892 -2.3658116 -0.13180198
-0.1029745 -2.3315079 -0.13938594
0.033329941 -2.3301156 -0.13934551
-0.10589203 -2.3268466 -0.13766141
-0.066131711 -2.3286231 -0.13026789
-0.055394504 -2.3272307 -0.13277328
0.52207661 -2.3635294 -0.12032683
0.56469476 -2.3606541 -0.12938561
0.63696265 -2.3695323 -0.12012786
0.65847242 -2.3666871 -0.12392063
-0.072349124 -2.3351419 -0.12902114
-0.076425225 -2.3230982 -0.12675315
2.1528554 -2.4350374 -0.1151815
0.59228098 -2.3678389 -0.11224928
0.65881479 -2.3607757 -0.11138556
0.68088174 -2.3596694 -0.11488062
-0.10234594 -2.331378 -0.11710505
-0.098204844 -2.3308723 -0.11899843
-0.054776035 -2.3317485 -0.11226641
0.039240494 -2.3335931 -0.11181694
-0.14468178 -2.3279474 -0.11513475
-0.1112925 -2.3226526 -0.11175155
-0.10742976 -2.3246005 -0.11397716
-0.058646444 -2.3241587 -0.11076809
0.030631401 -2.3247154 -0.11753865
0.041024361 -2.3270679 -0.11002742
0.61577058 -2.3662417 -0.10456803
-0.079744279 -2.3304396 -0.10450461
0.046060197 -2.3339021 -0.10558642
-0.076926649 -2.3221517 -0.10494535
-0.063969888 -2.3236997 -0.1092809
0.04682225 -2.32793 -0.10444411
0.61737889 -2.3661256 -0.09302973
-0.10631231 -2.3362989 -0.092226088
-0.053856932 -2.3337502 -0.091577314
0.053610064 -2.3353434 -0.096971646
-0.10823272 -2.3297164 -0.090545572
-0.055888902 -2.3210468 -0.09024328
-0.11071593 -2.3361111 -0.089520976
-0.084792547 -2.3321421 -0.080301158
-0.1483794 -2.3247616 -0.084730223
-0.077229425 -2.3259311 -0.08327128
-0.064522147 -2.3243709 -0.087843448
-0.05835209 -2.3273134 -0.089951396
-0.11208387 -2.319571 -0.087284319
2.153841 -2.4342484 -0.076784268
0.64170122 -2.3632996 -0.072149299
0.66310716 -2.3595045 -0.074399151
0.59716082 -2.3635206 -0.067467913
0.62027991 -2.3669021 -0.069897823
0.66422248 -2.3594291 -0.062033948
-0.10761932 -2.3346384 -0.066793859
-0.11046104 -2.3231225 -0.063762374
-0.10553198 -2.326685 -0.067724913
-0.077597409 -2.3244517 -0.060853258
-0.063906148 -2.3220527 -0.066539198
-0.11187207 -2.3186302 -0.062272798
0.59912926 -2.3673265 -0.056339029
0.62057495 -2.3639226 -0.058215279
-0.095177621 -2.3362746 -0.050938066
-0.12233746 -2.3204303 -0.052598566
-0.09259937 -2.3255606 -0.052109759
-0.084913522 -2.3238063 -0.056847535
0.5992288 -2.3643539 -0.045041203
0.62117821 -2.3628929 -0.046576053
-0.10290685 -2.3314464 -0.044250783
-0.099185117 -2.3338091 -0.047659669
-0.056066096 -2.333245 -0.048594039
-0.10248567 -2.3229771 -0.043980211
-0.064477026 -2.3214808 -0.044695236
-0.055091985 -2.3250918 -0.048538551
3.7005304e-17 -2.3233533 -0.043466661
2.1430185 -2.4206431 -0.038191885
0.46634328 -2.3600962 -0.03574894
0.55464303 -2.3607814 -0.031422727
-0.11176524 -2.332298 -0.03478485
-0.047341455 -2.3377483 -0.030748764
9.6858833e-17 -2.3338892 -0.033441518
0.018119318 -2.3345518 -0.031860135
-0.11315131 -2.3226528 -0.032079846
-0.10728255 -2.324785 -0.039439607
1.0486342e-16 -2.3283594 -0.030974776
0.017592676 -2.3260427 -0.03429221
-0.11153713 -2.3181605 -0.033834122
-0.10807256 -2.3184066 -0.038089164
0.53341496 -2.3625734 -0.020197738
0.60056794 -2.365242 -0.022542771
-0.095818251 -2.3346758 -0.022474982
-0.054103553 -2.3320377 -0.028277088
-0.049672194 -2.3364778 -0.029978629
1.1425172e-16 -2.3348246 -0.027677344
0.019101486 -2.3347921 -0.025290068
0.082004473 -2.3366675 -0.021150474
-0.1160915 -2.3236175 -0.027653828
-0.088275693 -2.3201804 -0.029864676
-0.056480076 -2.3250721 -0.027055169
1.1990849e-16 -2.3259141 -0.024961775
0.019091526 -2.3249788 -0.024931088
-0.16150545 -2.3172176 -0.024973018
0.64487886 -2.3620942 -0.012041761
-0.122772 -2.3359442 -0.013843245
-0.099876419 -2.3364761 -0.01623542
-0.046236955 -2.3310902 -0.011174161
-0.013954418 -2.3338084 -0.017880581
0.019931039 -2.3326526 -0.018118814
0.02013636 -2.3347526 -0.015905779
-0.12229415 -2.3254361 -0.013749763
-0.10088105 -2.3228135 -0.012625379
-0.048345387 -2.3239751 -0.010444439
-0.013768815 -2.3277993 -0.018149698
1.341969e-16 -2.3232992 -0.016848478
0.020393163 -2.3250284 -0.010839543
-0.1635067 -2.3166721 -0.016716579
-0.12060221 -2.3179121 -0.017720414
0.48957309 -2.361702 -0.0093308883
-0.12404805 -2.3339581 -0.0076301359
-0.061768129 -2.3342297 -0.0020085142
-0.055330336 -2.3353591 -0.0076558786
-0.037775844 -2.3334229 -0.0014419147
-0.021050503 -2.3339384 -0.003314873
0.020571036 -2.330245 -0.0080099264
-0.12398843 -2.3255005 -0.0046074856
-0.10228549 -2.3211842 -0.0081124986
-0.061998188 -2.3257456 -0.00074710028
-0.053577408 -2.3234696 -0.0080938227
-0.03588289 -2.3242519 -0.001812515
-0.022117168 -2.3242922 -0.0023974385
-0.019563362 -2.3283615 -0.0079143615
1.4319796e-16 -2.3238983 -0.0062468909
0.020577526 -2.3258159 -0.0064832899
2.1531858 -2.431957 0
2.3438473 -2.4248998 0
0.51159275 -2.3622282 0.0097152423
0.64497709 -2.3620872 0
-0.12455958 -2.3317385 0
-0.080699697 -2.3383913 0.0092361802
-0.040218238 -2.3309751 0.00085895212
-0.035346549 -2.3363693 0.001801719
-0.022739144 -2.3349662 0.0031110386
-0.019418526 -2.3371572 0.0085496483
0.020760428 -2.3339093 0
0.041408144 -2.3347769 0.0065375166
-0.12367184 -2.323241 0.0059709451
-0.080647632 -2.326715 0.0084977169
-0.051898401 -2.3271427 0.0092124119
-0.040699445 -2.323323 0.00063775782
-0.038233079 -2.3248775 0.0013718312
-0.022517227 -2.3261018 0.0027450107
-0.018882036 -2.3260334 0.0062038912
0.020679241 -2.3264441 0.0022918398
0.46719727 -2.360014 0.017885366
0.55599427 -2.3636496 0.010490275
-0.18507077 -2.3300951 0.019747211
-0.079146914 -2.3336358 0.01142368
-0.048287373 -2.3382201 0.010787827
-0.026998311 -2.332469 0.014913462
-0.016211478 -2.3355093 0.014847122
1.3924802e-16 -2.3349664 0.013156727
0.040773299 -2.337162 0.016505152
-0.075458966 -2.3254693 0.015198015
-0.045859139 -2.3256176 0.011212504
-0.031669512 -2.3250184 0.014134389
-0.018055707 -2.3279135 0.011792976
0.040945757 -2.3281481 0.012767605
-0.089679033 -2.3327694 0.029276215
-0.06217273 -2.3349845 0.024861563
-0.055803556 -2.332731 0.027591074
-0.0070258686 -2.3385196 0.022982752
1.2341154e-16 -2.3342731 0.023655657
0.0396717 -2.3336043 0.025285583
0.040121399 -2.3361709 0.022397354
-0.18326239 -2.3244374 0.025766291
-0.13962314 -2.3257113 0.026697036
-0.120012 -2.32728 0.020510262
-0.065833613 -2.3246226 0.022527508
-0.051638752 -2.3217523 0.028800856
1.1498233e-16 -2.3231812 0.027188111
-0.14098169 -2.3171563 0.021516293
2.1476102 -2.425926 0.038272031
0.59938562 -2.3623652 0.033767588
-0.086845398 -2.3355217 0.031910591
-0.023974784 -2.3359163 0.035399616
9.3771424e-17 -2.3339663 0.034139652
0.037728593 -2.3359663 0.03584332
0.10033467 -2.3301735 0.03721498
-0.13651036 -2.3261695 0.033329777
-0.080204159 -2.3287764 0.03662863
-0.07654807 -2.3259809 0.038813982
-0.042186312 -2.3223934 0.031637285
-0.033943463 -2.3254108 0.033537272
1.0743612e-16 -2.3275585 0.030110877
0.038026713 -2.3267417 0.033713903
0.6219275 -2.3657973 0.046628449
-0.073122665 -2.3369267 0.041306093
-0.0621619 -2.3386645 0.046553031
-0.057613082 -2.3345883 0.048108216
5.5107242e-17 -2.3362956 0.041535009
0.035944574 -2.3335826 0.042865157
-0.15341403 -2.3244987 0.045125991
-0.10385567 -2.3260303 0.042942237
-0.051979572 -2.3229268 0.049471222
-0.14903007 -2.3307641 0.05296012
-0.084628195 -2.3370607 0.057841707
-0.033965603 -2.3355334 0.054359853
-0.029106032 -2.3344836 0.0551144
0.010897825 -2.3330674 0.055596806
0.033019386 -2.3327005 0.051963568
0.052140363 -2.336446 0.058369104
-0.19451156 -2.3236763 0.055405516
-0.14736588 -2.325129 0.054657098
-0.082611211 -2.3256562 0.058307528
-0.079257965 -2.3238456 0.059983969
-0.049611092 -2.3219507 0.050142892
-0.034984373 -2.3273773 0.053832609
0.010558019 -2.3262374 0.05613859
-0.19267681 -2.316978 0.057835139
0.46418688 -2.3613036 0.062479101
0.64381188 -2.3670881 0.060248252
0.66475499 -2.3613565 0.062080532
-0.11248884 -2.3316061 0.062772252
-0.10694602 -2.3326545 0.067130618
-0.074520871 -2.3356757 0.062953934
-0.057943724 -2.3341446 0.069240943
0.005818096 -2.3346305 0.0627864
0.050233256 -2.3347814 0.062946931
-0.14194851 -2.3296447 0.062114555
-0.1387099 -2.3274841 0.065570511
-0.11211492 -2.3241253 0.06247583
-0.05778921 -2.3276505 0.06895306
0.0069789747 -2.3237786 0.061435614
-0.16292448 -2.3161702 0.066991791
-0.13966931 -2.3170867 0.063428707
2.1413836 -2.419909 0.076349236
0.5959745 -2.3636096 0.078660585
0.66390449 -2.3623953 0.074482955
-0.095921621 -2.3377681 0.074723393
-0.087833546 -2.3316984 0.078767806
-0.041124344 -2.3357532 0.073710211
-0.034607138 -2.3361244 0.074925229
0.019959722 -2.3368242 0.075366177
-0.1609678 -2.322726 0.070434794
-0.15691227 -2.3264933 0.075791679
-0.044931293 -2.3227978 0.07219442
-0.035897441 -2.3296282 0.07438153
0.022944026 -2.3254783 0.071322605
2.3513627 -2.4343569 0.083681874
0.59508574 -2.3656526 0.089896634
0.61755651 -2.3611822 0.081310533
-0.11384575 -2.3342495 0.087325126
-0.082784005 -2.334115 0.081363522
-0.07657434 -2.3387389 0.0843824
0.012657582 -2.3327367 0.081753574
0.061363108 -2.3311172 0.085362472
-0.17301577 -2.3202529 0.087848999
-0.15049861 -2.3272853 0.082893312
-0.14825408 -2.3227677 0.084635787
-0.11872258 -2.3278661 0.083389439
-0.062944032 -2.3278863 0.08860866
0.059246846 -2.3261919 0.08847364
-0.15193412 -2.3198509 0.080574475
-0.12029728 -2.3193452 0.081489101
-0.11621035 -2.3184412 0.084390543
-0.14256468 -2.3302159 0.09070053
-0.10850731 -2.3357017 0.090861447
-0.094825283 -2.3384159 0.098562695
-0.041909136 -2.3304639 0.094044894
0.026536092 -2.3355794 0.096227266
0.031326342 -2.3343534 0.091954313
-0.16694158 -2.3225887 0.094847612
-0.053644918 -2.3247695 0.091053218
-0.046548884 -2.3233156 0.092648119
-0.038216576 -2.3261056 0.094437808
0.022468444 -2.3247056 0.098905422
-0.16661625 -2.3176022 0.094603457
-0.1574938 -2.3332398 0.10528787
-0.08374387 -2.3368993 0.10340004
-0.067015879 -2.3379431 0.10941058
0.017977834 -2.3350384 0.10183656
0.02001055 -2.3325448 0.10066319
-0.16066204 -2.3280022 0.10178214
-0.1535681 -2.3285363 0.10816247
-0.12281806 -2.3254004 0.10511936
-0.11667527 -2.3273962 0.10911039
-0.061225481 -2.3204353 0.10981511
2.1377869 -2.4176791 0.11439178
0.61298835 -2.3624988 0.11590055
-0.17720252 -2.333076 0.11517636
-0.064324215 -2.3366683 0.11011564
-0.058796436 -2.3301442 0.11115883
-0.043778442 -2.3307538 0.1144971
0.028062314 -2.334177 0.11938675
0.092410229 -2.3393023 0.11331742
-0.17250438 -2.3218861 0.11810861
-0.15087655 -2.3250821 0.11000473
-0.055971146 -2.3248944 0.11149329
-0.047887035 -2.3291237 0.11359772
0.026598828 -2.3249235 0.11979695
-0.14660925 -2.31743 0.11253012
2.3413224 -2.4256866 0.12505864
0.47709802 -2.3628485 0.12026956
0.61100864 -2.3626418 0.12735446
-0.16662093 -2.3331459 0.1246866
-0.12720357 -2.3342772 0.12736052
-0.094232515 -2.3363667 0.1212039
-0.087039478 -2.3345892 0.12396482
-0.16471553 -2.3264582 0.12534386
-0.12674122 -2.3253071 0.12676089
-0.069128327 -2.3278923 0.12937534
0.057491127 -2.3295932 0.12254079
-0.12130994 -2.3325388 0.13056305
-0.057170168 -2.3368254 0.13315414
-0.047862913 -2.3380873 0.13516016
-0.21186271 -2.3242726 0.13782053
-0.15779471 -2.3278294 0.13103093
-0.063064262 -2.3276987 0.13098441
-0.050691951 -2.3243706 0.13352707
-0.18213874 -2.3173761 0.13650085
0.53912455 -2.3630307 0.14530534
-0.077051908 -2.334162 0.14898689
0.092853114 -2.3331647 0.14511898
-0.12985063 -2.3253148 0.14858408
-0.093182355 -2.325609 0.14278537
-0.073524423 -2.3289158 0.14952657
2.1400871 -2.4230099 0.1527885
0.51264781 -2.3623366 0.15940307
0.67592233 -2.3658664 0.15302776
-0.15950812 -2.3320696 0.15562238
-0.12534545 -2.333755 0.15184911
-0.11704255 -2.3369076 0.15621899
-0.070230052 -2.3316438 0.15066931
-0.063500158 -2.3351228 0.15264183
-0.056623105 -2.3356273 0.15421146
-0.16397616 -2.3247137 0.15163341
2.3408844 -2.4279108 0.16682963
0.558541 -2.3650937 0.16130745
-0.10474852 -2.3353248 0.16131331
-0.094078109 -2.3374424 0.16548483
-0.082844868 -2.3311501 0.1684479
-0.18297443 -2.3240752 0.16330513
-0.17795505 -2.3274326 0.16744211
-0.21473335 -2.3198855 0.1632359
-0.18582055 -2.3165505 0.16005252
-0.13771191 -2.3179297 0.16685961
0.60244465 -2.3681891 0.17307141
-0.077527486 -2.338721 0.17071885
-0.066133298 -2.3359783 0.17327857
-0.058593441 -2.339479 0.17520703
0.090003282 -2.3387203 0.17633307
0.058302432 -2.3253174 0.17205895
0.59857291 -2.3645265 0.18404171
-0.10451955 -2.3340209 0.18335906
-0.09651088 -2.3324723 0.18594266
-0.18612657 -2.3293641 0.18734501
-0.14562885 -2.3223081 0.18650858
-0.18908998 -2.3178489 0.18356122
2.1430316 -2.4298639 0.19141297
0.64272881 -2.3677466 0.19670321
0.66774303 -2.3673775 0.19056806
0.059071418 -2.3411171 0.19589742
-0.080347523 -2.3334157 0.19079781
-0.076359734 -2.3371441 0.19221357
0.056281302 -2.3378627 0.19691777
-0.16496725 -2.3165979 0.19873582
2.3362999 -2.4265218 0.20832175
0.66504866 -2.3695102 0.20310332
0.090149403 -2.3408775 0.20199171
-0.15757379 -2.3317959 0.20490217
-0.10912403 -2.336462 0.20398703
-0.091412678 -2.3304324 0.2088681
-0.19476058 -2.3223965 0.20553771
-0.15273386 -2.3235252 0.20626311
0.58829623 -2.3632984 0.21721721
-0.1401459 -2.3325031 0.21347199
-0.078242294 -2.3356471 0.21288531
-0.14386676 -2.3209016 0.21021341
-0.22070619 -2.3168244 0.21167755
2.1329083 -2.4223921 0.22888148
0.63514286 -2.365315 0.22027619
-0.16627491 -2.3265381 0.22305027
-0.15441248 -2.3232584 0.22847912
-0.19850281 -2.3198535 0.22748353
0.58063465 -2.3628676 0.23901133
-0.18530039 -2.3326647 0.23741245
-0.19452967 -2.328407 0.23134135
-0.14026287 -2.3263204 0.23518609
-0.16038203 -2.3320508 0.24997897
-0.16739917 -2.3240969 0.24541794
0.056430917 -2.3276577 0.24005477
2.3344305 -2.4287732 0.25006232
0.66988665 -2.3643513 0.25920972
-0.20203072 -2.3310137 0.25166792
-0.14440943 -2.3242378 0.25563747
0.080820948 -2.3260405 0.25255689
2.1312757 -2.4254999 0.26717186
-0.17047776 -2.3310523 0.26819214
0.63968295 -2.3643148 0.27530599
0.080449618 -2.3363993 0.276191
-0.20235075 -2.3212512 0.27385265
-0.16487613 -2.3287754 0.27035427
-0.15337068 -2.321274 0.27401075
-0.231957 -2.3317585 0.28285566
-0.19215874 -2.3324599 0.28123334
2.324327 -2.423059 0.29087558
0.53414279 -2.3642974 0.29258892
0.078308485 -2.3376343 0.29916924
-0.15386754 -2.3241363 0.2966947
0.073451944 -2.3264647 0.29941416
-0.2075471 -2.3166094 0.29398263
-0.16225165 -2.3171439 0.29221946
2.1250846 -2.424093 0.30492395
0.55393302 -2.3638153 0.30267254
-0.19706684 -2.3327501 0.30235863
-0.23159024 -2.3236029 0.30603996
0.59951991 -2.3647759 0.31213209
0.62503034 -2.3642931 0.31047428
-0.16628909 -2.3322871 0.31582424
-0.17212567 -2.3266468 0.31246418
-0.15943591 -2.3241251 0.31698936
-0.15271051 -2.3179414 0.31834072
0.64047569 -2.3652329 0.33210757
-0.17451403 -2.322855 0.33346269
-0.16413133 -2.3165436 0.33621198
0.58339494 -2.3658638 0.34519753
0.66221052 -2.3694422 0.34270835
-0.17633592 -2.3208601 0.35494742
-0.16968173 -2.3255134 0.35832238
-0.23428498 -2.3170226 0.35134315
-0.21472183 -2.3318343 0.36410037
-0.16254285 -2.3242726 0.36058438
0.64312088 -2.3657486 0.37830415
-0.18571836 -2.3307307 0.3760207
-0.17759004 -2.320653 0.37695321
2.1442904 -2.4167521 0.38591042
-0.16363291 -2.3329072 0.38426721
-0.17819731 -2.321243 0.39933056
-0.24060385 -2.3130219 0.39470294
0.63028789 -2.366534 0.40189186
-0.22587509 -2.3202775 0.40320954
-0.21855968 -2.3258712 0.40766802
-0.17075853 -2.3258936 0.40283003
-0.1627644 -2.3236895 0.40490535
-0.15512978 -2.3273697 0.40798122
0.65057403 -2.368609 0.41408104
-0.21123295 -2.332449 0.41220665
-0.13549334 -2.3321795 0.41427872
-0.14730492 -2.3290942 0.4105604
-0.12322132 -2.3284132 0.41640157
-0.24336132 -2.3171027 0.41796345
-0.1859896 -2.3189592 0.41861713
0.61644167 -2.36641 0.42483068
-0.17867231 -2.3294713 0.42344615
-0.16988175 -2.3214037 0.42446011
-0.23484506 -2.3129179 0.4208141
-0.21989709 -2.3279979 0.43078697
-0.13713859 -2.3283033 0.4350023
-0.12855569 -2.3251476 0.43630967
-0.16932943 -2.331389 0.44922006
-0.16058733 -2.3301809 0.45143944
-0.15200052 -2.3319063 0.45413759
-0.14341986 -2.3346119 0.45690772
-0.13461293 -2.3343925 0.45891562
2.1291406 -2.4163029 0.46191883
-0.19412151 -2.3301566 0.46369272
-0.24568421 -2.312603 0.48608762
2.1215637 -2.4172218 0.49992436
0.49832651 -2.343328 0.4953869
-0.25507212 -2.3221352 0.53179181
-0.23443796 -2.3187513 0.53853106
0.51395071 -2.3455539 0.54577053
-0.25404987 -2.32693 0.55708122
-0.24236451 -2.316092 0.55814993
2.1146982 -2.431083 0.57827848
-0.250085 -2.3113184 0.57725877
-0.24003442 -2.3197393 0.58329993
-0.22880186 -2.3175912 0.58634174
-0.20749028 -2.3277278 0.59579188
-0.19502433 -2.3130968 0.5948621
-0.18515339 -2.3301911 0.60244983
-0.2598142 -2.3245804 0.6013394
-0.17364204 -2.3280642 0.60457426
2.3128972 -2.4360976 0.6313858
-0.21999694 -2.3146963 0.63428342
-0.2078903 -2.3125763 0.63694483
-0.26391235 -2.3195262 0.64550406
-0.25249046 -2.3259842 0.65142566
-0.23917027 -2.31528 0.65205258
-0.22738308 -2.3198397 0.65701562
-0.21583836 -2.3282182 0.66294175
-0.20348452 -2.3289714 0.66637808
-0.19130218 -2.3325894 0.67048275
2.1096032 -2.4207275 0.69935739
2.0985844 -2.4224629 0.7372511
2.090055 -2.4279273 0.77610868
0.4697071 -2.3468709 0.78985065
0.48313582 -2.3480818 0.78170413
0.47893453 -2.348309 0.86851007
2.1221259 -2.4126997 0.87425178
2.0795803 -2.4240327 0.90031242
2.1461174 -2.4154203 0.92855573
2.2999079 -2.4388072 0.94608039
2.09901 -2.422821 0.95284259
2.1267476 -2.4121065 0.9651922
2.2729261 -2.4277942 0.98238283
2.0774355 -2.4172959 0.98774195
2.0954998 -2.4163973 1.0417702
2.08409 -2.4247267 1.0823264
2.1106031 -2.4128535 1.0958354
2.0670633 -2.4272656 1.1202033
2.1063678 -2.4113708 1.1893952
2.2598259 -2.4318619 1.2226969
2.1237075 -2.4132752 1.2486231
2.0631351 -2.4107294 1.2628334
2.1044097 -2.4165022 1.2876337
2.4917893 -2.434128 1.2900597
2.2570961 -2.4342868 1.3256351
2.0772243 -2.4112556 1.32184
2.114023 -2.4115157 1.3448346
2.5228732 -2.4441068 1.3625616
2.4911566 -2.4366088 1.4026871
2.248929 -2.4347639 1.4291332
2.0689988 -2.415175 1.4207209
5.3786178 -2.5530999 1.4528432
2.0460806 -2.4177225 1.4584919
2.075923 -2.4104197 1.4793879
6.3916979 -2.6064949 1.4857625
2.481384 -2.433876 1.5141426
2.0537302 -2.4150436 1.5185727
2.2273245 -2.4245441 1.5275129
2.15253 -2.4135582 1.5330286
2.0862169 -2.4106948 1.5421757
2.0359936 -2.4259305 1.5613129
2.0606046 -2.4125385 1.5798587
6.3811646 -2.6134212 1.6018895
2.4696121 -2.4331355 1.6282936
2.0417652 -2.423342 1.6229066
2.2064657 -2.4193037 1.6295415
2.0689692 -2.4129136 1.6441607
2.0398748 -2.4127204 1.6801775
2.073586 -2.4099894 1.7074763
2.0168979 -2.420722 1.7213037
2.0462239 -2.4131913 1.7459112
2.150667 -2.4134095 1.7698952
2.0159469 -2.4137013 1.7819585
2.1965156 -2.4219694 1.8070226
2.1228135 -2.4172223 1.8101774
2.1262667 -2.4151065 1.877858
2.0217509 -2.4128196 1.9160031
2.0925632 -2.4143147 1.9142631
2.0560496 -2.4109089 1.9479872
2.1281357 -2.4123797 1.9462928
2.0282469 -2.4186664 1.9899149
2.0561364 -2.408905 2.0168476
1.9974904 -2.4238091 2.0293102
5.3086634 -2.549407 2.0539315
2.0243962 -2.4133523 2.056216
2.0923226 -2.4082942 2.0517921
2.185652 -2.43062 2.0688434
2.0551157 -2.4069164 2.0869355
1.9913983 -2.4171596 2.0945237
2.0247896 -2.4145472 2.1291013
2.0984583 -2.414537 2.1302781
1.9920677 -2.4202592 2.169142
2.0636594 -2.4176414 2.1693523
6.3393135 -2.5984595 2.1974511
2.0171037 -2.4073977 2.1959896
2.0951614 -2.4111328 2.2019737
1.9878228 -2.4187901 2.2411425
2.0176473 -2.4116523 2.2742658
1.98537 -2.421051 2.3178689
2.1335654 -2.4134862 2.3208799
2.0162678 -2.4150925 2.3534126
1.9800081 -2.4212923 2.3941538
2.1351068 -2.4183276 2.4047179
2.0083659 -2.4121723 2.4279492
2.0840285 -2.4079583 2.4313626
5.2632995 -2.5448411 2.4733346
2.1366765 -2.424679 2.4919269
2.0025859 -2.4134228 2.5079591
2.0806198 -2.4102309 2.5140581
2.0330074 -2.4060223 2.5455265
1.9962578 -2.4156642 2.590554
2.0796871 -2.4169972 2.6031713
2.0315797 -2.4140427 2.6357639
1.9897588 -2.4194243 2.6764379
2.064544 -2.4086652 2.6779563
2.0224936 -2.4145782 2.7198782
1.978673 -2.4193239 2.7598155
2.0093269 -2.4119213 2.802007
6.2805209 -2.5979121 2.8145711
1.874279 -2.4100306 2.8160396
1.9111295 -2.4126272 2.8706727
2.0034246 -2.419919 2.8980486
1.9522688 -2.4194191 2.9316642
2.0420613 -2.4210641 2.9532278
1.9862442 -2.4160471 2.9820347
3.8163984 -2.485687 3.009402
3.4192343 -2.4773519 3.0018177
2.0784822 -2.418421 3.0052421
3.5532179 -2.4839718 3.0104294
2.0235786 -2.4157133 3.0373855
1.9682029 -2.4130132 3.068507
3.9220574 -2.5005305 3.0919518
2.0689864 -2.4237807 3.1047053
2.0105963 -2.4189162 3.1337869
1.9469769 -2.4079881 3.1539767
1.9923693 -2.4177704 3.2266195
1.9303724 -2.410815 3.2512515
1.972948 -2.417238 3.3221095
2.0100482 -2.4155118 3.3838544
1.9921937 -2.4191358 3.4895518
1.9622883 -2.4101934 3.5794196
2.2404647 -2.4171536 3.6236553
2.0059209 -2.4153829 3.6581347
6.2085919 -2.5977187 3.7536752
5.1652403 -2.5431354 3.779217
2.6369948 -2.4424756 4.0983562
1.5231407 -2.3901217 4.7305427
2.5341561 -2.4388342 4.8057871
2.7643886 -2.4390702 4.8270326
4.431531 -2.5121512 4.9551554
6.104454 -2.5932629 4.9716091
5.3497777 -2.5574305 5.0194383
6.007082 -2.5893202 5.0694656
