# .PCD v0.7 - Point Cloud Data file format
VERSION 0.7
FIELDS x y z
SIZE 4 4 4
TYPE F F F
COUNT 1 1 1
WIDTH 674
HEIGHT 1
VIEWPOINT 0 0 0 1 0 0 0
POINTS 674
DATA ascii
2.2307906 -2.9211571 -1.0115151
2.2273092 -2.8644969 -1.0099651
2.2253811 -2.3948734 -1.0091066
2.1963952 0.35763556 -0.99620122
2.224751 -2.8389044 -0.96193367
2.2185104 -2.7804439 -0.95928466
2.21715 -2.6810312 -0.95870721
2.2145293 -2.584022 -0.95759481
2.2145498 -2.4937606 -0.95760351
2.2225351 -2.9184258 -0.91481978
2.2204518 -2.8634434 -0.9139781
2.2152662 -2.8056638 -0.91188294
2.2130859 -2.9381609 -0.86565059
2.2124324 -2.7327101 -0.86539978
2.2110667 -2.6824903 -0.86487556
2.2101436 -2.5872355 -0.86452115
2.2129507 -2.9183204 -0.82083905
2.219403 -2.8743427 -0.82318759
2.2145452 -2.8165829 -0.82141942
2.2083073 -2.7583723 -0.81914902
2.2079494 -2.6135108 -0.81901878
2.2026663 -2.4713764 -0.81709582
2.2141218 -2.8492117 -0.77703387
2.2037654 -2.7351286 -0.77346784
2.2057221 -2.6888299 -0.77414161
2.2039828 -2.6389349 -0.7735427
2.2022164 -2.5900311 -0.77293444
2.2089257 -2.8771133 -0.73162925
2.2085361 -2.8248711 -0.73150265
2.2050526 -2.6718516 -0.73037076
2.2108006 -2.4067917 -0.73223847
2.2020011 -2.7164946 -0.7293793
2.1967871 -2.5225384 -0.72768521
2.210794 -2.9159467 -0.68906426
2.2026608 -2.8526165 -0.68657768
2.2008634 -2.7989891 -0.68602818
2.1958733 -2.5984497 -0.68450254
2.2080498 -2.8968112 -0.64555174
2.2033069 -2.8383064 -0.64419174
2.1983578 -2.7808917 -0.64277261
2.1999526 -2.7330484 -0.64322996
2.1959708 -2.679265 -0.64208817
2.1968749 -2.6326118 -0.6423474
2.1923862 -2.5346487 -0.64106029
2.1907718 -2.4878945 -0.6405974
2.2103612 -2.9387486 -0.60391134
2.2003284 -2.8721731 -0.60122305
2.1962588 -2.7643616 -0.60013264
2.2042103 -2.4036429 -0.60226327
2.1953571 -2.8138356 -0.59989101
2.1909661 -2.7081466 -0.59871441
2.194829 -2.6645005 -0.59974951
2.1931059 -2.6149127 -0.59928787
2.1889431 -2.517962 -0.59817237
2.1910605 -2.4757943 -0.59873974
2.1961432 -2.9060245 -0.55844647
2.1989326 -2.8570042 -0.55914193
2.1974368 -2.8034651 -0.55876899
2.1921504 -2.7462907 -0.55745101
2.1922376 -2.6971471 -0.55747271
2.1916609 -2.6482167 -0.55732894
2.1860135 -2.5941851 -0.5559209
2.1874778 -2.416631 -0.55628598
2.198247 -2.8963208 -0.51762807
2.1961684 -2.8410606 -0.51714826
2.1957457 -2.7891948 -0.51705068
2.1958368 -2.7391131 -0.51707166
2.1933858 -2.6869328 -0.51650578
2.1864586 -2.6304145 -0.51490653
2.1809623 -2.4861257 -0.5136376
2.1834838 -2.4449453 -0.51421976
2.1907389 -2.4098125 -0.51589471
2.1945391 -2.9332964 -0.47581971
2.1948602 -2.8802838 -0.47588795
2.1860144 -2.8164625 -0.47400773
2.193907 -2.7757206 -0.47568536
2.1852672 -2.7148514 -0.47384891
2.1938009 -2.6767316 -0.47566283
2.1792169 -2.6110935 -0.47256288
2.18274 -2.5687382 -0.47331169
2.1816399 -2.4769683 -0.47307789
2.1928935 -2.9203618 -0.43484172
2.191314 -2.8650534 -0.4345347
2.1829123 -2.8021216 -0.43290159
2.1797125 -2.74739 -0.43227962
2.182539 -2.7014835 -0.43282902
2.1916149 -2.6642292 -0.43459317
2.1850762 -2.6086388 -0.43332219
2.1771166 -2.552613 -0.431775
2.1838222 -2.5150471 -0.43307844
2.1848476 -2.4715691 -0.43327776
2.1747868 -2.4163795 -0.43132213
2.1863673 -2.90185 -0.39332971
2.1810281 -2.8419032 -0.39238828
2.1802843 -2.7893703 -0.39225709
2.1824837 -2.7417686 -0.39264494
2.1883712 -2.6997859 -0.39368305
2.1874404 -2.6501968 -0.39351892
2.1744313 -2.5870464 -0.39122507
2.1764958 -2.5433452 -0.39158911
2.1721613 -2.4930172 -0.39082482
2.1868184 -2.893734 -0.35339758
2.1850028 -2.8386002 -0.35310999
2.1775405 -2.7774205 -0.35192809
2.1851785 -2.7369432 -0.35313782
2.1848271 -2.6872222 -0.35308218
2.1787608 -2.6315479 -0.35212135
2.1814265 -2.5876827 -0.35254356
2.1783719 -2.5378926 -0.35205975
2.1816063 -2.4086752 -0.35257202
2.1907425 -2.8912222 -0.31415156
2.1828728 -2.8281705 -0.31304556
2.1874957 -2.7828205 -0.31369525
2.1804061 -2.7235229 -0.3126989
2.1743305 -2.6669002 -0.311845
2.1775227 -2.6229441 -0.31229365
2.1737568 -2.5714798 -0.31176439
2.1763442 -2.5286517 -0.31212801
2.1718612 -2.4784319 -0.31149796
2.1409719 -0.20176814 -0.30715677
2.1868222 -2.8791401 -0.27399212
2.1800396 -2.8177543 -0.27315933
2.1748068 -2.7598658 -0.27251682
2.1743004 -2.7093337 -0.27245465
2.1712122 -2.6566949 -0.27207547
2.1711679 -2.6089523 -0.27207002
2.1736536 -2.565249 -0.27237523
2.1697476 -2.5148618 -0.27189565
2.1716483 -2.4722919 -0.272129
2.1744041 -2.3883915 -0.27246737
2.1726213 -2.8542936 -0.23305547
2.1746922 -2.8049717 -0.23327315
2.1797481 -2.7605648 -0.23380454
2.1780093 -2.708462 -0.23362179
2.1736567 -2.6542745 -0.2331643
2.1697965 -2.6019189 -0.23275858
2.1683915 -2.5536692 -0.23261091
2.1688998 -2.5086899 -0.23266432
2.1687939 -2.463901 -0.2326532
2.172915 -2.9029143 -0.19402744
2.1816711 -2.8614058 -0.19479351
2.1748281 -2.7494574 -0.19419481
2.1754713 -2.7005606 -0.19425109
2.1729243 -2.6487591 -0.19402826
2.1696441 -2.5972137 -0.19374128
2.1605127 -2.5398052 -0.19294237
2.165431 -2.5002499 -0.19337267
2.1567564 -2.4457128 -0.19261374
2.1657834 -2.4124949 -0.1934035
2.1735284 -2.8996375 -0.15512696
2.1774659 -2.8517606 -0.1554023
2.175879 -2.7976947 -0.15529132
2.1672838 -2.6864121 -0.1546903
2.1646109 -2.6347089 -0.15450338
2.1612048 -2.5832629 -0.15426521
2.1615589 -2.5374455 -0.15428996
2.1548023 -2.4842198 -0.1538175
2.1544852 -2.4396136 -0.15379533
2.1667776 -2.4101865 -0.15465489
2.1663458 -2.8867278 -0.11588849
2.1695747 -2.8381357 -0.11605772
2.1751633 -2.79368 -0.1163506
2.1721511 -2.7391036 -0.11619273
2.1671121 -2.6832337 -0.11592865
2.1593816 -2.6253352 -0.11552351
2.1558909 -2.5739555 -0.11534057
2.1625836 -2.5358653 -0.11569133
2.1622925 -2.4902554 -0.11567606
2.1664448 -2.4071426 -0.11589368
2.1681938 -2.9411092 -0.077285469
2.1674027 -2.8858895 -0.077257849
2.1694245 -2.8357058 -0.077328451
2.1701152 -2.7343414 -0.077352569
2.1681418 -2.6824167 -0.077283658
2.1603987 -2.6245236 -0.077013262
2.1530845 -2.5685198 -0.076757848
2.1629477 -2.5342991 -0.077102266
2.1613445 -2.4871793 -0.07704629
2.170948 -2.9435155 -0.038679399
2.1677988 -2.8850651 -0.038624428
2.1619921 -2.8245041 -0.038523071
2.1650345 -2.7769647 -0.038576178
2.1641538 -2.6761353 -0.038560804
2.1582403 -2.6206176 -0.03845758
2.1527967 -2.566956 -0.038362566
2.1600802 -2.5296822 -0.038489699
2.1493456 -2.4719505 -0.038302325
2.1671643 -2.9378457 0
2.1619933 -2.6729982 0
2.1554222 -2.616725 0
2.1512165 -2.5646343 0
2.1514101 -2.5189507 0
2.1483743 -2.470423 0
2.1594727 -2.8738112 0.038479093
2.1577306 -2.7674446 0.038448688
2.1573071 -2.6675267 0.038441297
2.1607571 -2.6237261 0.038501512
2.148345 -2.5615547 0.038284861
2.1581521 -2.527384 0.038456041
2.1428521 -2.4643464 0.038188983
2.1608636 -2.8770471 0.077029496
2.1549897 -2.8165383 0.076824374
2.1543109 -2.7642915 0.076800674
2.1541178 -2.7138531 0.076793924
2.1525886 -2.6628516 0.076740526
2.1547384 -2.6175296 0.076815598
2.1537201 -2.5692916 0.076780044
2.1468875 -2.5151479 0.076541446
2.144469 -2.4674087 0.076456986
2.1553895 -2.925772 0.11531429
2.1568415 -2.8738661 0.1153904
2.1444843 -2.7036431 0.11474277
2.1472189 -2.6581903 0.11488609
2.1468122 -2.6097922 0.11486478
2.1482685 -2.5646961 0.11494109
2.1349816 -2.5029254 0.11424477
2.1551337 -2.8747177 0.15384068
2.1522512 -2.818218 0.15363911
2.1515877 -2.7659605 0.15359272
2.1477237 -2.7107832 0.1533225
2.1517587 -2.6668468 0.15360467
2.1394994 -2.6036232 0.15274742
2.1370928 -2.5539412 0.15257913
2.1359098 -2.5068038 0.15249641
2.141845 -2.4690118 0.15291144
2.1510954 -2.8206756 0.19211848
2.1456022 -2.7620554 0.19163787
2.1441622 -2.7100568 0.1915119
2.1488051 -2.6669085 0.19191809
2.1472204 -2.6168962 0.19177943
2.1385949 -2.5594041 0.19102482
2.1381006 -2.5129936 0.19098158
2.1376109 -2.4675524 0.19093874
2.1399493 -2.7093439 0.22962151
2.1423631 -2.6154172 0.22987521
2.1305757 -2.5540781 0.22863631
2.1389852 -2.5184312 0.22952019
2.1391888 -2.473711 0.22954157
2.1453547 -2.9243391 0.23018965
2.1480536 -2.7700644 0.23047331
2.1439588 -2.6654186 0.23004292
2.1469266 -2.932518 0.26909357
2.1424201 -2.7181013 0.2685402
2.1329026 -2.6568987 0.26737165
2.1368577 -2.6139517 0.26785725
2.1288683 -2.5572536 0.26687628
2.1360118 -2.5200522 0.26775339
2.129782 -2.4677167 0.26698846
2.1381936 -2.8734384 0.3067663
2.1406817 -2.8241367 0.307116
2.1417704 -2.7237198 0.30726898
2.1409531 -2.6734362 0.30715412
2.138185 -2.6218257 0.30676511
2.13658 -2.5727885 0.30653951
2.1311092 -2.5201547 0.30577067
2.1216781 -2.4640172 0.30444521
2.1324675 -2.7776415 0.38382575
2.1372364 -2.7334216 0.38466662
2.1334393 -2.6791601 0.38399705
2.1332126 -2.63062 0.38395709
2.1179082 -2.5645463 0.38125855
2.1282208 -2.5311251 0.38307691
2.1275811 -2.4409423 0.3829641
2.1364689 -2.8971391 0.4238739
2.1355901 -2.8428941 0.42370307
2.1315563 -2.785718 0.42291898
2.1291251 -2.7319887 0.42244643
2.1234934 -2.67539 0.42135173
2.1170566 -2.6191061 0.42010054
2.1285512 -2.5862949 0.42233485
2.128288 -2.5396945 0.42228368
2.125478 -2.4910204 0.42173746
2.1200657 -2.4403307 0.42068544
2.1217544 -2.3989203 0.42101368
2.1160378 -2.4888957 0.45913377
2.1125507 -2.4404874 0.45839253
2.1317415 -2.7961884 0.46247166
2.1226645 -2.6841555 0.46054229
2.1218636 -2.6348054 0.46037209
2.1266057 -2.5933962 0.46138003
2.1226301 -2.5421493 0.46053499
2.11568 -2.6858904 0.498566
2.1175642 -2.5461497 0.49900103
2.1148267 -2.4974301 0.49836904
2.1184554 -2.4572608 0.49920678
2.1246953 -2.797945 0.50064737
2.1253824 -2.7480755 0.50080597
2.1222539 -2.6458554 0.50008368
2.1227312 -2.5989676 0.50019395
2.1218715 -2.7553508 0.53992844
2.1158221 -2.6491473 0.5384202
2.1187925 -2.605324 0.53916085
2.1180651 -2.5578237 0.53897941
2.1217375 -2.5166237 0.53989506
2.1172361 -2.4665008 0.5387727
2.1081917 -2.4121625 0.53651774
2.1234896 -2.8084419 0.5403319
2.07671 0.50045657 0.56809962
2.1200328 -2.8691571 0.57970792
2.1209824 -2.8181589 0.57996237
2.1196666 -2.6664412 0.57960975
2.1147797 -2.6124651 0.57830042
2.1184602 -2.570277 0.57928652
2.1159458 -2.5213826 0.5786128
2.1115029 -2.4712257 0.57742238
2.1241288 -2.9283922 0.58080542
2.1218302 -2.7681558 0.58018953
2.0676224 0.50045455 0.60528487
2.1183481 -2.8286822 0.61983019
2.1166906 -2.675977 0.61935496
2.108237 -2.6173048 0.6169309
2.1144097 -2.5781472 0.61870086
2.11322 -2.5307174 0.6183598
2.1113975 -2.483511 0.61783719
2.105124 -2.4320419 0.61603826
2.1137891 -2.6383617 0.6594069
2.102277 -2.5768383 0.65588731
2.1128809 -2.5438673 0.65912926
2.1074109 -2.4920356 0.65745693
2.1082091 -2.4487419 0.6577009
2.1090865 -2.4063716 0.65796924
2.1184838 -2.8967435 0.66084224
2.116739 -2.841599 0.66030878
2.1160064 -2.6894114 0.66008484
2.1114364 -2.9033687 0.69995302
2.1096604 -2.7964051 0.69937599
2.1112628 -2.6501722 0.69989663
2.1078568 -2.5985236 0.69878989
2.1080797 -2.5524681 0.69886243
2.1089485 -2.508121 0.69914466
2.1073525 -2.4617105 0.6986261
2.1132278 -2.8529422 0.70053512
2.1127729 -2.7005277 0.7003873
2.1064208 -2.7085483 0.73994941
2.0982139 -2.4657044 0.73712361
2.1084054 -2.8635051 0.74063277
2.1107166 -2.7638845 0.74142855
2.1091931 -2.6635392 0.74090403
2.107738 -2.6140938 0.740403
2.1074717 -2.5671649 0.74031126
2.098979 -2.6197183 0.77935684
2.0991614 -2.5274999 0.77942318
2.1021743 -2.6715174 0.78051972
2.1018097 -2.5765519 0.78038704
2.0935953 -2.5836706 0.8197825
2.0904076 -2.5338128 0.81855881
2.08708 -2.4408357 0.81728154
2.0895681 -2.4005888 0.81823659
2.1050861 -2.8965697 0.82419336
2.1042311 -2.8428962 0.82386523
2.1027527 -2.6903114 0.82329768
2.0943279 -2.631484 0.82006371
2.0964663 -2.4961998 0.82088453
2.0821414 -2.4089866 0.85809702
2.0994177 -2.7544479 0.86507708
2.1007304 -2.7068036 0.86560744
2.0978577 -2.6547532 0.86444682
2.0937026 -2.6022084 0.86276799
2.0961583 -2.559006 0.86376017
2.093775 -2.5107179 0.86279732
2.0882902 -2.4597023 0.86058134
2.0957282 -2.8726411 0.90716678
2.0972817 -2.8229232 0.90782613
2.0976181 -2.7726228 0.90796894
2.0973079 -2.7225366 0.90783727
2.0939877 -2.6696086 0.90642798
2.0959573 -2.6245606 0.90726393
2.0937405 -2.5751555 0.90632302
2.0866218 -2.5207548 0.9033013
2.0880299 -2.4778383 0.90389895
2.0419643 0.49586779 0.92744422
2.089808 -2.7838161 0.94874561
2.0893135 -2.6844766 0.94852549
2.0863016 -2.5860345 0.9471845
2.0835581 -2.5367961 0.94596291
2.0875254 -2.4967301 0.94772935
2.0891623 -2.4545743 0.94845814
2.0931635 -2.6416028 0.9502396
2.0812962 -2.5096891 0.98954213
2.0750599 -2.457849 0.98663408
2.0929785 -2.9150445 0.99498969
2.0874436 -2.7532687 0.99240881
2.0889409 -2.657897 0.9931069
2.0846374 -2.6052279 0.99110025
2.0850668 -2.5595903 0.99130046
2.0895755 -2.7798421 1.0388808
2.0879295 -2.728039 1.038078
2.0827131 -2.6726828 1.0355338
2.0761998 -2.6168866 1.032357
2.0814786 -2.5771544 1.0349315
2.0832863 -2.533808 1.0358133
2.0803237 -2.4854665 1.0343684
2.0767629 -2.4373806 1.0326316
2.0784297 -2.7398798 1.0794424
2.0693479 -2.5849946 1.0748149
2.0707262 -2.4961388 1.0755173
2.0697069 -2.4508953 1.0749979
2.0815928 -2.6474257 1.0810541
2.0801408 -2.552737 1.0803143
2.0800626 -2.7678201 1.1271151
2.071224 -2.7068536 1.1224155
2.0801432 -2.6704295 1.127158
2.0734482 -2.6145663 1.1235982
2.0672348 -2.5605311 1.1202943
2.0722783 -2.5215688 1.1229762
2.0738695 -2.4790494 1.1238221
2.065114 -2.676842 1.1665277
2.0678008 -2.6329162 1.1680171
2.0688052 -2.5876591 1.1685739
2.0675049 -2.5403755 1.1678531
2.0644491 -2.4918573 1.1661593
2.0668325 -2.4508524 1.1674803
2.066318 -2.4071169 1.1671952
2.0778205 -2.8943682 1.1735711
2.0795581 -2.7942405 1.1745343
2.0732732 -2.736124 1.1710505
2.055465 -2.4621196 1.2092233
2.0735972 -2.8145444 1.2196919
2.0703888 -2.7111907 1.2178396
2.0681403 -2.6602654 1.2165414
2.0664403 -2.6110833 1.2155598
2.063571 -2.5614059 1.2139033
2.0607009 -2.512722 1.2122462
2.0652647 -2.4305224 1.2148812
2.0569413 -2.5802367 1.2591118
2.0501456 -2.5262849 1.2550284
2.0500946 -2.4381144 1.2549978
2.0741193 -2.9495537 1.2694334
2.0645089 -2.8317959 1.2636589
2.066417 -2.7840543 1.2648053
2.0660825 -2.7342305 1.2646043
2.0680015 -2.6883752 1.2657573
2.0596428 -2.6300607 1.2607349
2.0615823 -2.4958856 1.2619004
2.0581591 -2.6572242 1.3099269
2.0542047 -2.4701757 1.3074559
2.0566406 -2.4296844 1.308978
2.0594437 -2.8559539 1.3107297
2.0681157 -2.8171623 1.3161485
2.063575 -2.7610557 1.3133111
2.0622966 -2.7105055 1.3125123
2.0614128 -2.6145618 1.3119601
2.0607231 -2.567651 1.311529
2.0594976 -2.5209587 1.3107632
2.0534115 -2.778836 1.3580097
2.0488687 -2.6754816 1.3550596
2.0528073 -2.5870883 1.3576174
2.0528884 -2.5416911 1.3576701
2.0512977 -2.4950552 1.356637
2.0521214 -2.4522171 1.357172
2.0501034 -2.406728 1.3558615
2.0659444 -2.8464797 1.3661488
2.0583866 -2.7363918 1.3612406
2.0567493 -2.6385767 1.3601775
2.0151424 0.4222919 1.3843944
2.0443273 -2.6537557 1.4040799
2.0495832 -2.6138506 1.407625
2.0498531 -2.568238 1.4078071
2.0513482 -2.5249817 1.4088156
2.0459831 -2.4740481 1.4051967
2.045315 -2.4297888 1.4047461
2.0621364 -2.8750482 1.4160923
2.0591962 -2.8200238 1.4141091
2.0611122 -2.7727752 1.4154013
2.0569551 -2.7182744 1.4125974
2.0473909 -2.7881992 1.4594095
2.0428207 -2.545568 1.4562093
2.0399594 -2.4973171 1.4542059
2.0545263 -2.848393 1.4644058
2.0499678 -2.7424998 1.4612138
2.0492814 -2.6932762 1.4607332
2.0497248 -2.6464748 1.4610437
2.049093 -2.5991488 1.4606012
2.0493085 -2.4648821 1.4607522
2.0397768 -2.7151134 1.5084349
2.0305748 -2.430094 1.5017492
2.0554216 -2.9383023 1.5198015
2.0450294 -2.8714902 1.5122511
2.0515432 -2.8298478 1.5169837
2.0473404 -2.774168 1.5139302
2.0469861 -2.6769166 1.5136728
2.0432315 -2.6249928 1.5109448
2.0428352 -2.5783944 1.510657
2.0436392 -2.5341489 1.5112412
2.0439754 -2.4900868 1.5114853
2.0087926 0.38943827 1.5408155
2.0446839 -2.7095633 1.5678617
2.0357037 -2.6501226 1.5610944
2.0354836 -2.6033192 1.5609286
2.0403655 -2.5638592 1.5646073
2.0414648 -2.5202525 1.5654359
2.0392652 -2.4733164 1.5637782
2.049031 -2.864018 1.5711373
2.0483224 -2.8125355 1.5706034
2.0497518 -2.7649779 1.5716804
2.0368295 -2.7363701 1.6190504
2.0363216 -2.6404836 1.6186535
2.0297909 -2.5857348 1.6135511
2.0310223 -2.5419438 1.6145133
2.0329313 -2.4997284 1.6160048
2.0321484 -2.4548898 1.615393
2.044662 -2.9494159 1.6251699
2.0463126 -2.8996968 1.6264594
2.0405817 -2.8405099 1.621982
2.0427127 -2.7934725 1.6236467
2.0389974 -2.6912217 1.6207441
2.0246825 -2.6161804 1.6678751
2.0254111 -2.5261509 1.668465
2.0243249 -2.4369097 1.6675854
2.0389676 -2.8788993 1.6794429
2.0392251 -2.8286138 1.6796514
2.028538 -2.7156482 1.670997
2.0303793 -2.6704655 1.6724882
2.0310452 -2.5784953 1.6730273
2.0298452 -2.4873331 1.6720557
2.0248022 -2.9531124 1.7279361
2.0205324 -2.6968613 1.7243534
2.0231433 -2.6530557 1.7265443
2.0231569 -2.6065717 1.7265556
2.0248899 -2.5630977 1.7280099
2.0261972 -2.5197868 1.7291067
2.0181899 -2.4656317 1.7223878
2.0349362 -2.8645024 1.7364397
2.0328181 -2.8112252 1.7346624
2.031199 -2.75967 1.7333037
2.0249467 -2.6963608 1.7897819
2.0215051 -2.6445587 1.7867903
2.0159221 -2.5909431 1.7819369
2.0152173 -2.5446098 1.7813244
2.0189846 -2.5046897 1.7845991
2.0152047 -2.4560142 1.7813133
2.0325925 -2.8541536 1.7964283
2.0320523 -2.754199 1.7959589
2.0184662 -2.7791772 1.8475461
2.0178778 -2.7296908 1.8470163
2.0152264 -2.678313 1.8446288
2.016304 -2.6328173 1.8455992
2.0121353 -2.5812526 1.8418455
2.017695 -2.5430696 1.8468515
2.0131304 -2.4926803 1.8427416
2.0146425 -2.4507036 1.8441031
2.0102417 -2.402194 1.8401408
2.0222261 -2.8846598 1.8509313
2.0262382 -2.8397663 1.8545439
2.0147974 -2.721977 1.909519
2.0056994 -2.6620853 1.901035
2.0091448 -2.6199894 1.9042476
2.0132673 -2.5793948 1.9080921
2.0127468 -2.5334489 1.9076067
2.0104127 -2.442203 1.9054302
2.0240574 -2.9349225 1.9181541
2.0245433 -2.8336582 1.918607
2.0196936 -2.7772958 1.9140847
2.0051179 -2.659431 1.9675794
1.9995018 -2.6054044 1.9621561
1.9986229 -2.5585415 1.9613073
2.0015519 -2.517307 1.9641359
2.0025473 -2.4305885 1.9650971
2.0167706 -2.8708849 1.9788324
2.0173061 -2.7720153 1.9793495
2.0107191 -2.714493 1.9729885
2.0182803 -2.8227711 1.9802902
1.995146 -2.5993299 2.0269659
1.9967084 -2.5556905 2.0285282
1.9970901 -2.4669204 2.0289099
2.0034542 -2.656893 2.035274
1.9994619 -2.5142221 2.0312817
2.0146859 -2.8675432 2.0465057
2.013 -2.8149922 2.0448198
2.0118291 -2.7641072 2.043649
2.0091677 -2.7120807 2.0409875
1.9920286 -2.6428559 2.0951765
1.9938228 -2.5988131 2.0970342
1.9941885 -2.508563 2.0974131
2.0035486 -2.9554391 2.1071057
2.0045774 -2.8544431 2.108171
2.0022795 -2.7522364 2.1057913
2.0014405 -2.7028847 2.1049228
2.0084314 -2.9108984 2.1121621
2.0086167 -2.8102264 2.1123538
1.9881452 -2.6877556 2.1649356
1.9861467 -2.6378915 2.1627924
1.9892824 -2.5956476 2.1661551
1.9879813 -2.5482273 2.1647599
1.9878128 -2.50301 2.1645792
1.987777 -2.4586444 2.1645408
1.9990754 -2.9521236 2.1766567
1.9982775 -2.8486452 2.1758013
1.9976153 -2.7488859 2.175091
2.0035636 -2.8062949 2.1814699
1.9859769 -2.8360496 2.2390924
1.9863575 -2.7381206 2.2395151
1.9851794 -2.6884642 2.2382066
1.9840711 -2.6397202 2.2369759
1.9795394 -2.5872383 2.2319427
1.9811122 -2.5436087 2.2336895
1.9792745 -2.496242 2.2316484
1.9801111 -2.4529777 2.2325778
1.9947869 -2.9510515 2.2488768
1.9973235 -2.9031944 2.251694
1.9958422 -2.8004031 2.2500489
1.9745649 -2.6804564 2.305439
1.9752638 -2.6342099 2.3062429
1.9730356 -2.5390444 2.3036797
1.9771118 -2.4992039 2.3083689
1.9753144 -2.4524546 2.3063011
1.9849789 -2.7919047 2.3174191
1.9788064 -2.7343168 2.3103182
1.9790508 -2.5927453 2.3105993
1.9882532 -2.9486408 2.3211856
1.9915419 -2.9019356 2.3249688
1.9887376 -2.847111 2.3217428
1.971403 -2.7325764 2.3838985
1.9718941 -2.6851664 2.3844841
1.9691231 -2.5415823 2.3811815
1.9826971 -2.9497697 2.3973584
1.9819632 -2.8463798 2.3964837
1.9800074 -2.7936904 2.3941529
1.9876734 -2.9055302 2.4032891
1.9620957 -2.5878263 2.457958
1.9636313 -2.4984019 2.4598541
1.9631499 -2.4530239 2.45926
1.9752448 -2.950191 2.4741957
1.9751785 -2.8476682 2.4741137
1.9731258 -2.7947426 2.4715791
1.9748857 -2.7480586 2.4737523
1.9752145 -2.4238603 2.4741583
1.9559397 -2.5449569 2.538949
1.9598752 -2.7395523 2.5439863
1.9573463 -2.6876376 2.5407495
1.9676636 -2.9526279 2.5539551
1.972253 -2.9077346 2.5598292
1.9687328 -2.8515642 2.5553236
1.9666051 -2.7983696 2.5526001
1.9664477 -2.4231687 2.5523987
1.9593397 -2.9043796 2.6360703
1.9579833 -2.8513398 2.6342702
1.9566746 -2.7992206 2.6325333
1.9577143 -2.7512569 2.6339133
1.9614544 -2.4289253 2.6388764
1.9479953 -2.7055056 2.7175913
1.9491441 -2.65886 2.7191725
1.9490427 -2.4271936 2.719033
1.9532788 -2.9135947 2.7248633
1.9416425 -2.8146677 2.8098147
1.9484092 -2.9271107 2.8194785
1.9425898 -2.7167673 2.8111675
1.9462789 -2.3945591 2.8164361
1.9347258 -2.7765708 2.9056556
1.9309283 -2.6726649 2.9000258
1.9311544 -2.6247749 2.9003608
1.9413575 -2.8879497 2.9154875
1.9382396 -2.8320997 2.9108651
1.9296319 -2.948384 3.0091128
1.9288143 -2.8433044 3.0078537
1.9265953 -2.7391956 3.0044367
1.9319209 -2.8995428 3.0126374
1.9248682 -2.9175971 3.1185951
1.9221303 -2.8100436 3.1142137
1.9207202 -2.4209452 3.1119571
1.9086221 -2.4296312 3.2150531
1.9154029 -2.9350128 3.2263381
1.9140148 -2.8802829 3.2240281
1.8997384 -2.6876407 3.3294146
1.8920655 -2.8136597 3.4527345
1.9007089 -2.4280005 3.4683275
1.8777618 -2.4299145 3.5712891
1.8803612 -2.4193075 3.7305119
1.8618277 -2.4229684 4.0334864
1.8422211 -1.7658248 4.1788063
1.8260441 -1.9661591 4.3433132
1.8337692 -2.425529 4.3615122
1.8065109 -2.388278 4.7481332
1.804221 -2.2253993 4.7421675
