# .PCD v0.7 - Point Cloud Data file format
VERSION 0.7
FIELDS x y z
SIZE 4 4 4
TYPE F F F
COUNT 1 1 1
WIDTH 834
HEIGHT 1
VIEWPOINT 0 0 0 1 0 0 0
POINTS 834
DATA ascii
-2.1350439 -3.0159278 -1.3102771
-2.1978455 -3.0171788 -1.2974221
-1.8539875 -3.0218136 -1.2723651
-1.7100071 -3.021956 -1.2615011
-2.0615368 -3.0179226 -1.2643448
-1.4192796 -3.0229239 -1.2478142
-2.2851446 -3.0197551 -1.2448599
-2.0195236 -3.0098634 -1.2380921
-1.2194728 -3.0093555 -1.2304307
-2.7964222 -3.0199556 -1.2267443
-2.560401 -3.0144186 -1.2290643
-2.4533617 -3.0179455 -1.2296207
-1.7280592 -3.0141165 -1.2290581
-1.3889208 -3.0164523 -1.220479
-1.1730614 -3.0094626 -1.2250434
-2.5217698 -3.021467 -1.2102226
-1.3405863 -3.0177474 -1.2194271
-1.0850116 -3.0164576 -1.2142011
-1.5883727 -3.0098906 -1.2132679
-1.4854478 -3.0093277 -1.2175132
-1.1263201 -3.0065687 -1.2174636
-1.0157503 -3.0072544 -1.2193756
-2.7430985 -3.0144553 -1.203003
-2.6264553 -3.0130422 -1.2057184
-2.3017423 -3.0125368 -1.2027318
-1.8971659 -3.0193274 -1.2075253
-1.752057 -3.0177562 -1.2009926
-1.1962053 -3.0123742 -1.2063366
-1.1499637 -3.0112374 -1.2002741
-0.86862153 -3.0115964 -1.2036582
-1.0365816 -3.0039995 -1.2008779
-0.97167188 -3.0040982 -1.2082229
-1.264959 -3.0134411 -1.1902971
-1.1047142 -3.0105963 -1.1934679
-0.82879817 -3.013659 -1.1914371
-1.4561129 -3.0074763 -1.1928983
-1.4069861 -3.0082583 -1.1935518
-1.3103009 -3.0086401 -1.1911855
-0.99381036 -3.0052576 -1.192282
-0.93030834 -3.0067954 -1.1986222
-2.4736018 -3.016109 -1.1867296
-2.0094919 -3.0166311 -1.1842479
-0.70767426 -3.0127249 -1.1867566
-1.8554946 -3.0073998 -1.1804636
-1.556641 -3.0063977 -1.1884764
-1.2145077 -3.0039809 -1.182688
-1.0579836 -3.0034022 -1.183109
-0.95255119 -3.0088456 -1.1837494
-0.8893525 -3.0082722 -1.1876829
-0.84986508 -3.0121131 -1.1768713
-0.78853315 -3.0108855 -1.1764945
-1.1243312 -3.0056231 -1.1727867
-1.0168583 -3.0099738 -1.1773726
-0.90977472 -3.004956 -1.1713732
-0.72787011 -3.0075166 -1.1728067
-0.64791727 -3.007225 -1.1788225
-2.6486874 -3.0141673 -1.1609685
-2.4263072 -3.0107999 -1.1636623
-1.9710864 -3.0130138 -1.1611716
-1.7708231 -3.0132155 -1.1692716
-0.67009056 -3.0110843 -1.1695175
-1.3795111 -3.0081248 -1.1696681
-0.97311282 -3.0064487 -1.1667227
-0.61194521 -3.0070601 -1.1609149
-0.51290572 -3.001379 -1.1669074
-2.7646406 -3.0148554 -1.1559374
-1.8238841 -3.0111225 -1.1599355
-0.99568802 -3.0111887 -1.1521428
-0.77154458 -3.0134349 -1.1503344
-0.63376731 -3.0109313 -1.1522104
-1.1909294 -3.006609 -1.1591097
-1.1458653 -3.0068111 -1.1542079
-0.93043196 -3.003438 -1.1554382
-0.86808378 -3.0015867 -1.1584091
-0.74778092 -3.0023153 -1.1585375
-1.5012076 -3.0132725 -1.1451671
-0.95556712 -3.0171423 -1.1450555
-2.0255134 -3.0090923 -1.1469307
-1.4484076 -3.0063958 -1.144578
-1.3513795 -3.0058658 -1.1452136
-1.256874 -3.0046306 -1.141364
-1.0582227 -3.0079012 -1.1418338
-0.89038688 -3.0063481 -1.1456448
-0.82894748 -3.004168 -1.1469978
-0.71080363 -3.0051744 -1.1444033
-0.38610482 -3.0025611 -1.1455109
-2.8388259 -3.0200491 -1.1301028
-1.6520476 -3.0101569 -1.1309652
-0.91330177 -3.0138144 -1.1335125
-0.79239815 -3.0136862 -1.1374719
-1.5473582 -3.0053308 -1.1389364
-0.84998846 -3.0053337 -1.133503
-0.73178059 -3.0063245 -1.1329316
-0.59793645 -3.0086198 -1.1334211
-1.0804623 -3.0126443 -1.1257432
-2.4453895 -3.0089638 -1.121286
-1.4213225 -3.0088296 -1.1226448
-0.97200054 -3.0040071 -1.123913
-0.81059861 -3.0048823 -1.1207929
-0.75278515 -3.0083921 -1.1214473
-0.67396259 -3.0049896 -1.1283664
-0.54278266 -3.0066817 -1.1232173
-1.1439567 -3.0108178 -1.1121368
-0.93273646 -3.0105033 -1.1168621
-2.0440171 -3.0063255 -1.1112007
-1.7566544 -3.0098784 -1.1162759
-1.186235 -3.0048218 -1.1142743
-0.8689813 -3.0001895 -1.1172385
-0.69465178 -3.00614 -1.1175222
-0.63891399 -3.0090671 -1.1132734
-2.4069059 -3.0142803 -1.1033409
-2.1991775 -3.0078712 -1.1001073
-1.8070518 -3.0049877 -1.1053249
-1.6186038 -3.0058351 -1.1075476
-1.0992361 -3.0085266 -1.105922
-0.99411821 -3.0096743 -1.1096402
-0.89162517 -3.0085921 -1.1057677
-0.830679 -3.0042429 -1.1069257
-0.65813535 -3.0047154 -1.1009527
-0.58272034 -3.0034289 -1.1035577
-0.50960261 -3.0064783 -1.1034766
-2.6241319 -3.0156357 -1.096295
-1.493049 -3.0148079 -1.0980115
-2.1010017 -3.005929 -1.0959963
-1.7234964 -3.0089729 -1.0947429
-1.2512655 -3.0041127 -1.0965337
-1.2063956 -3.0051599 -1.0942922
-1.0536395 -3.0014055 -1.0969791
-0.95072418 -3.0036058 -1.098557
-0.8522867 -3.0099559 -1.0950841
-0.79159236 -3.0025403 -1.0936491
-0.73457575 -3.0048079 -1.0934073
-0.67813492 -3.0049558 -1.0900334
-0.52982426 -3.0076115 -1.0954279
-1.0747752 -3.0052905 -1.0805919
-1.0112383 -3.0010319 -1.0896524
-0.97179145 -3.0075023 -1.0839562
-0.81290817 -3.0082705 -1.0824664
-0.75534236 -3.0087209 -1.0825344
-0.6224677 -3.0029626 -1.0836035
-1.2743965 -3.0123386 -1.0782933
-1.2265548 -3.006387 -1.074284
-0.92980337 -3.0037611 -1.0736245
-0.87137556 -3.00752 -1.0798494
-0.69730586 -3.0024519 -1.0777605
-0.64353412 -3.0096428 -1.0756627
-0.56950217 -3.0080476 -1.0776156
-2.6856773 -3.0106523 -1.0682267
-0.71862978 -3.0100431 -1.0688527
-1.557495 -3.0059347 -1.0647588
-1.1359673 -3.0012069 -1.0657312
-1.0933933 -3.0029483 -1.0615735
-0.8915056 -3.0096242 -1.0659461
-0.66288918 -3.0089662 -1.0646603
-0.58784425 -3.0018077 -1.0658416
-0.44579288 -3.0042086 -1.0616529
-0.82981569 -2.9985397 -1.065264
-0.77267158 -2.9998517 -1.0666275
-2.5321209 -3.0136456 -1.0572387
-1.9381139 -3.0106361 -1.0524976
-0.85350353 -3.0142958 -1.0569742
-1.7929697 -3.0049255 -1.0541482
-1.6062622 -3.0039628 -1.0582739
-1.0102142 -3.006335 -1.0504112
-0.79324687 -3.0046935 -1.0554049
-0.68059289 -3.001853 -1.0510142
-0.60704964 -3.0011175 -1.0557886
-0.53616762 -3.0075288 -1.0588608
-0.35791746 -3.0034263 -1.0587591
-1.0498178 -2.9998832 -1.0547478
-2.752965 -3.0115862 -1.0406377
-1.7084523 -3.0055211 -1.0437131
-1.477528 -3.0031095 -1.0470365
-1.1566278 -3.0051012 -1.0478829
-1.111656 -3.0006161 -1.0422541
-0.90813857 -3.0008614 -1.0478054
-0.81169122 -3.0022349 -1.0412121
-0.75543928 -3.0032384 -1.0420172
-0.70098764 -3.0076342 -1.0416862
-0.62664413 -3.0032055 -1.0464083
-0.57420623 -3.0061293 -1.0401922
-0.55510139 -3.0058985 -1.0493525
-1.6253769 -3.0043728 -1.0310234
-1.3542423 -3.0020809 -1.0303453
-1.3088914 -3.0034573 -1.0316
-1.2213228 -3.0095584 -1.0321569
-0.92882943 -3.0066082 -1.0345341
-0.86956841 -3.0036716 -1.038856
-0.64647663 -3.007148 -1.0373453
-0.52247792 -3.0059912 -1.0307927
-0.34890139 -3.0059254 -1.0310105
-1.1322143 -3.0054214 -1.0251169
-0.98622882 -3.0010941 -1.02469
-0.77462202 -3.0044332 -1.02977
-0.59260285 -3.0035844 -1.0297259
-0.82986563 -2.9997847 -1.0267191
-0.7179715 -2.9996152 -1.0271299
-0.66353321 -2.9990876 -1.023713
-1.3321568 -3.0143385 -1.0130901
-0.90977955 -3.0133879 -1.0126197
-1.5954953 -3.0067525 -1.011618
-1.0458564 -3.0007114 -1.0140365
-0.94648743 -3.0033011 -1.0177393
-0.73733562 -3.00265 -1.0161625
-0.47197533 -3.0046301 -1.0189644
-0.55816883 -2.9971483 -1.0100302
-2.3990519 -3.0100865 -1.0007542
-2.1059847 -3.0131712 -1.0074307
-1.4684329 -3.0064125 -1.0023968
-1.192868 -3.0022762 -1.0074216
-1.1501307 -3.0039997 -1.0054715
-1.105927 -3.0000217 -1.0006037
-1.0045363 -3.0005243 -1.0078574
-0.96440071 -3.0018158 -1.0012822
-0.81086814 -3.0013447 -1.0024034
-0.75629014 -3.0047722 -1.0045383
-0.70189983 -3.005161 -1.0033027
-0.6295523 -3.0022242 -1.0091785
-1.8324478 -3.0090847 -0.99392593
-0.92651886 -3.0082498 -0.99556196
-0.86695254 -3.0003912 -0.99872178
-0.64853626 -3.0052633 -0.99971277
-0.5962975 -3.0050788 -0.99384642
-0.5268085 -3.0025039 -0.99382454
-1.0225377 -2.9999642 -0.99071795
0.48403519 -2.9903674 -0.99006784
-2.6124332 -3.0117917 -0.98669261
-1.1711127 -3.0114985 -0.98851007
-1.4388406 -3.0054853 -0.9816761
-0.88458538 -2.9988806 -0.98363715
-0.77293104 -2.9986176 -0.98977548
-0.71841758 -2.9980469 -0.9891448
-0.61291051 -2.997889 -0.98148185
-2.5718374 -3.0175161 -0.97110933
-0.68603832 -3.0113635 -0.97978699
-2.4586973 -3.0088127 -0.9765209
-1.663527 -3.0077574 -0.97637117
-1.0417762 -3.0039268 -0.97477198
-0.94263941 -3.0022109 -0.9779461
-0.73823893 -3.0057223 -0.97969294
-0.6321733 -3.004663 -0.9735266
-0.56326586 -3.0048513 -0.97680062
-0.49617928 -3.0075979 -0.97687256
-0.79119563 -2.9998357 -0.97722369
-2.4206741 -3.0151086 -0.96115851
-2.0272911 -3.0077796 -0.96904927
-1.714525 -3.0095963 -0.96738142
-1.2729932 -3.0027621 -0.96686655
-1.230842 -3.0074756 -0.96839684
-1.0016991 -3.0061238 -0.96987927
-0.86695206 -3.0096142 -0.96335232
-0.75493866 -3.0013955 -0.96589881
-0.70261025 -3.0060802 -0.96656954
-0.6501326 -3.0058613 -0.96337628
-0.58019769 -3.0004334 -0.96596074
-0.53187412 -3.0090082 -0.96057707
-0.51354039 -3.0050216 -0.9677844
-2.1777472 -3.0100682 -0.95129246
-0.59967816 -3.0100262 -0.95945948
-1.0613792 -3.0097041 -0.95906222
-1.0172045 -3.0001354 -0.95104337
-0.82756275 -3.0041382 -0.95177889
-0.66689062 -3.0024149 -0.95139933
-0.77183688 -2.9989245 -0.95244569
-0.71869439 -2.9998777 -0.95279217
-1.2912818 -3.0049329 -0.94596899
-0.79064649 -3.0047772 -0.94139552
-0.73787779 -3.007591 -0.94325835
-0.61567551 -3.0028214 -0.94712466
-0.56576002 -3.0038879 -0.94095397
-0.54840201 -3.0036347 -0.94998556
-0.50044775 -3.0081997 -0.94208878
-0.48293021 -3.0070231 -0.94970793
-0.41828495 -3.0054684 -0.94399488
-0.8815574 -2.9998555 -0.94562715
-2.0485516 -3.0138721 -0.93623745
-1.8693038 -3.0124681 -0.93202829
-2.1383247 -3.0093341 -0.93374032
-1.5993391 -3.0062056 -0.93780315
-0.75462413 -3.0060408 -0.93041438
-0.63375324 -3.0068269 -0.93815428
-0.58331704 -3.006021 -0.93223
-0.51751304 -3.007503 -0.93356782
-0.43541914 -3.0047481 -0.93685788
-0.68320352 -2.9980462 -0.93885392
-1.7811964 -3.0081201 -0.92595267
-1.6470766 -3.0046735 -0.92844009
-1.0926752 -3.0014324 -0.92032534
-0.86252409 -3.0066347 -0.92448848
-0.70077431 -3.0001981 -0.92812735
-0.5992431 -3.0006683 -0.92082733
-0.53408903 -3.0049334 -0.92416418
-0.47001609 -3.0080376 -0.92323011
-0.37265417 -3.0038598 -0.92878622
-2.0072677 -3.0075922 -0.91698647
-1.0533793 -3.006315 -0.91835612
-0.82423955 -3.0035739 -0.91421723
-0.77113026 -3.004499 -0.91729504
-0.66680878 -3.0027239 -0.91543978
-0.61646074 -3.002816 -0.91152614
-0.55167848 -3.0089486 -0.91656405
-0.48555064 -2.9997938 -0.91285151
-2.0632808 -3.0111349 -0.9003287
-0.73446047 -3.0008044 -0.90460604
-0.56703782 -3.001694 -0.90513682
-0.43960339 -3.001914 -0.90194863
-0.68248463 -2.9983501 -0.90295368
-0.63234633 -2.9993508 -0.90018529
-1.5843201 -3.0056872 -0.89220762
-1.0293117 -3.0058291 -0.89668548
-0.98908228 -3.0046277 -0.89164424
-0.89407277 -3.0008833 -0.89346915
-0.80413997 -3.0042229 -0.89109528
-0.70028442 -3.0042539 -0.89337021
-0.58324015 -3.0000844 -0.89521718
-0.53642762 -3.0071497 -0.89014876
-0.51964504 -3.0050054 -0.89810658
-0.4568457 -3.0068781 -0.89622676
-1.7135595 -3.0065973 -0.88998955
-1.4599257 -3.0046015 -0.88841641
-0.7677632 -3.0033054 -0.88051254
-0.59962738 -3.0003619 -0.88560498
-0.48956251 -3.0073698 -0.88100052
-0.47312331 -3.0061753 -0.88846153
-0.31922314 -3.0030518 -0.884543
-0.85604548 -2.999635 -0.88508546
-2.3136585 -3.0183897 -0.87200373
-0.68349487 -3.0105462 -0.87108976
-1.6797284 -3.00476 -0.87200123
-1.3854197 -3.0047245 -0.8751933
-0.96615893 -3.0053091 -0.87026787
-0.6657083 -3.0027475 -0.87986314
-0.61756319 -3.0091038 -0.87826836
-0.56817287 -3.0039179 -0.87110448
-0.50508344 -3.0038431 -0.87183678
-0.73161364 -3.0002155 -0.86849606
-0.58413702 -3.0041983 -0.86175203
-0.45880976 -2.9999812 -0.86036956
-1.6483637 -3.0067506 -0.85532433
-0.74796098 -3.0024102 -0.85691321
-0.53691131 -3.0043738 -0.85499799
-0.47475308 -3.0011814 -0.85314804
-1.0754389 -3.001569 -0.84255385
-0.81459761 -3.0015409 -0.8406381
-0.71274984 -3.0008783 -0.84520113
-0.61613035 -3.0076094 -0.84306347
-0.55311465 -3.0074863 -0.84700632
-0.76269853 -2.9990122 -0.84342235
-0.48980221 -2.9976461 -0.84426868
-0.72800237 -3.0002723 -0.83312744
-0.67866272 -3.0009246 -0.83318818
-0.50578362 -3.0007558 -0.83707178
-0.37222454 -3.0037923 -0.83548331
-1.3025405 -3.0103931 -0.82137096
-1.0529083 -3.0080485 -0.82430887
-0.9193958 -3.0020335 -0.82666051
-0.52115905 -3.0010273 -0.82878178
-0.46177277 -3.0060868 -0.82873559
-0.40285555 -3.0042651 -0.82314265
-0.69328886 -2.9984305 -0.82116884
-0.5988695 -3.0064671 -0.81841242
-0.55145746 -3.0015919 -0.81142986
-0.49118251 -3.0009086 -0.81178188
-0.41800359 -3.0045097 -0.81658864
-0.53604895 -2.9994094 -0.81969547
-1.7593821 -3.0063894 -0.80139554
-1.2741952 -3.0095112 -0.80296326
-0.86183566 -3.0091648 -0.80100536
-0.66010457 -3.0000596 -0.80943489
-0.56637096 -3.0018854 -0.80237275
-0.50643283 -3.0030851 -0.80427325
-0.3611086 -3.0052965 -0.80929589
-0.61236531 -2.9992092 -0.8064428
-0.37494937 -2.9969258 -0.80104053
-1.6779473 -3.0060375 -0.79866284
-0.82305747 -3.0004494 -0.79123771
-0.77432209 -3.0060015 -0.79744786
-0.52090168 -3.0014644 -0.79545474
-1.1621553 -3.0056136 -0.78793889
-1.0800742 -3.0016 -0.7868126
-1.0422629 -3.0064278 -0.78660029
-1.0038838 -3.0082176 -0.78460968
-0.6904763 -3.0044949 -0.7884056
-0.41970482 -3.003406 -0.78362179
-0.6416077 -2.9989002 -0.78575993
-0.50625432 -3.0061123 -0.77201408
-0.49110842 -3.0010598 -0.77876914
-0.43374225 -3.0007968 -0.7760179
-0.75202113 -2.998879 -0.77353299
-0.97725934 -3.0008967 -0.76304954
-0.76716894 -3.0030079 -0.76205641
-0.71966714 -3.0070798 -0.7658298
-0.51949781 -3.0006814 -0.76221633
-0.44791299 -3.0001066 -0.76869857
-0.39281052 -3.0053496 -0.7649352
-1.9069496 -3.0074768 -0.75360036
-0.94009835 -3.0029824 -0.7599107
-0.90421194 -3.0075731 -0.75649679
-0.53354806 -3.0009804 -0.75371081
-0.47689497 -3.0054405 -0.75511402
-0.4201453 -3.0001147 -0.75044572
-0.57760131 -2.9979095 -0.75859427
-0.74712288 -3.0059311 -0.74129814
-0.69885516 -3.0031126 -0.74271578
-0.60594577 -3.0014102 -0.74011475
-0.43400949 -3.0003834 -0.74361598
-0.36659208 -3.0060728 -0.74537539
-0.28608486 -3.0007725 -0.74372548
-0.54709947 -2.9993792 -0.74447715
-0.79467273 -3.0028369 -0.73614687
-0.5179432 -3.0044098 -0.73057574
-0.50414449 -3.0031519 -0.73857421
-0.44746616 -2.9987409 -0.736063
-1.7526411 -3.005614 -0.72636914
-1.2862222 -3.0061431 -0.7201007
-0.75933135 -3.0006578 -0.72751153
-0.57512033 -3.0038307 -0.72727185
-0.40710467 -3.0030029 -0.72591984
-0.34097824 -3.0046058 -0.72474009
-0.47424188 -2.9973946 -0.72078353
-0.46121681 -2.9999821 -0.72902113
-1.8014027 -3.0079801 -0.71095663
-0.58853769 -3.0041614 -0.71783346
-0.48849788 -3.003444 -0.71448064
-0.42080602 -3.0051966 -0.7197963
-0.28994414 -3.0033574 -0.71331924
-0.72483844 -2.9991274 -0.7182219
-0.63244522 -2.9992385 -0.71924686
-0.36679539 -2.9974003 -0.71159625
-1.8864312 -3.0108449 -0.7080065
-0.69183481 -3.0011008 -0.70899111
-0.64590859 -3.0005436 -0.70907092
-0.55706936 -3.0005791 -0.7033174
-0.44690183 -3.0028751 -0.70519704
-0.39394698 -3.0046735 -0.7011739
-0.50075746 -2.9979951 -0.70509678
5.7313991 -2.961319 -0.70921141
-1.7658494 -3.0061617 -0.69659215
-0.61388892 -3.0000796 -0.69713235
-0.65877795 -2.9999552 -0.69820553
-0.26658177 -2.9984527 -0.6901412
5.6096201 -2.960423 -0.69425887
-0.88235003 -3.0017197 -0.68619359
-0.58271366 -3.0002978 -0.6846199
-0.4858318 -3.0047331 -0.68296856
-0.35489914 -3.0016892 -0.68720531
-0.47198629 -2.9976981 -0.68905497
-0.36707434 -2.9971228 -0.68032867
-0.29216832 -2.9989226 -0.68141866
-1.2023836 -3.0075793 -0.67169648
-0.59555936 -3.0016043 -0.67528802
-0.44481197 -3.0029168 -0.67368579
-0.3177368 -3.0023174 -0.672539
-0.55184966 -2.9983301 -0.67087483
-0.53943837 -2.9989533 -0.67992026
-0.49753785 -2.9992797 -0.67369586
-1.7785265 -3.0067217 -0.6665858
-0.45702216 -3.001291 -0.66601223
-0.40544003 -3.0037456 -0.66327155
-0.39274603 -3.0015316 -0.66917473
-0.50986302 -2.9986403 -0.66536045
-0.32982588 -2.9986985 -0.66653001
6.2646356 -2.9597836 -0.66314352
-0.41750079 -3.0021029 -0.6562655
-0.35465083 -3.000191 -0.65594614
-0.66384542 -2.9996529 -0.65506178
-0.46878639 -2.997745 -0.65769774
-0.95553082 -3.0019426 -0.64325893
-0.63188916 -2.9998398 -0.64470726
-0.49322736 -2.9993494 -0.64246351
6.1239057 -2.9585271 -0.64835221
-0.55828243 -3.0000103 -0.63086313
-0.27144533 -3.001379 -0.63012755
-0.24775288 -3.0018728 -0.63840926
-0.54623878 -2.9986937 -0.63957715
-0.45314893 -2.99915 -0.63451421
6.0005946 -2.9635122 -0.63539171
-1.2652268 -3.0050988 -0.62423569
-0.35378754 -3.0013449 -0.62564492
-0.56980914 -2.999413 -0.62152851
-1.4179993 -3.0052416 -0.61303079
-0.37679335 -2.9999712 -0.61365408
-1.2366977 -3.0055449 -0.60969937
-0.38825044 -3.0002646 -0.60758471
-0.39934012 -2.9986248 -0.60091561
-0.34029546 -2.9980824 -0.60027003
5.7445717 -2.9621534 -0.6084826
-1.2082583 -3.0056653 -0.59520876
-0.45975807 -2.9980431 -0.59639692
-0.41043273 -2.9979625 -0.59427083
-0.29442689 -2.9986062 -0.59061664
5.6207867 -2.9603341 -0.59547228
-0.4713347 -3.0012841 -0.5895437
-0.57301331 -2.9989643 -0.58157063
-0.3626574 -2.9986534 -0.58916986
-0.23959835 -2.9996519 -0.58216393
-0.49287659 -3.0000465 -0.57368034
-0.32738516 -2.9994209 -0.57598931
-0.90285158 -3.0022786 -0.5618099
-0.3488991 -2.9999959 -0.5653398
-0.27193677 -2.9974751 -0.5696705
-0.56400383 -2.9988499 -0.55167276
-0.36965749 -2.9976752 -0.55341351
-0.35927677 -2.9983449 -0.55936444
-0.48532924 -2.9993675 -0.54392087
-0.32455468 -2.9978671 -0.54615426
6.1315203 -2.9571369 -0.54036051
-0.21977121 -2.9981217 -0.53051245
6.0035558 -2.9598675 -0.52916509
-0.33077765 -2.9983213 -0.51193392
-0.32101566 -2.9980199 -0.51704431
-0.2593416 -2.9971905 -0.51537603
4.8834553 -2.9643157 -0.51797557
-0.39412761 -2.9981148 -0.50606436
5.7551179 -2.9625399 -0.5074296
5.6337595 -2.9621367 -0.49681211
-0.42225057 -2.998198 -0.48646444
-0.27545664 -2.9973774 -0.47832596
5.4037499 -2.9619606 -0.47668889
5.1901832 -2.9631712 -0.45800418
6.2756948 -2.9557719 -0.44197837
6.0162716 -2.9620366 -0.42383772
5.6432648 -2.9630139 -0.39775458
6.1509943 -2.9592192 -0.32471508
3.6344512 -2.9528639 -0.1284883
-0.97688937 -2.9690077 -0.065171719
-0.89224029 -2.9676185 -0.014788754
-0.69521785 -2.9667847 -0.011349714
-1.3118844 -2.9721277 0
-1.0375857 -2.9683678 0
-0.89237618 -2.9676116 0
-0.75068361 -2.9658275 0
-0.3694188 -2.9639072 0.0028306579
-0.34289253 -2.9645293 0
-0.7788136 -2.9669142 0.012808884
-0.72287017 -2.9664364 0.011832387
-0.39588535 -2.9650712 0.015320789
-0.3424226 -2.9645908 0.015590491
-0.89183259 -2.967639 0.029573003
-0.58421862 -2.9647305 0.028262483
-0.44916761 -2.964637 0.021184759
-0.36810178 -2.9645712 0.028282722
-0.34194434 -2.9636452 0.020772036
-1.0671976 -2.9705374 0.035696883
-1.037279 -2.9693406 0.034652103
-0.97867829 -2.9689255 0.032605723
-0.92099422 -2.9693 0.03059135
-0.77761465 -2.9660008 0.038397938
-0.47484198 -2.9646575 0.037621282
-1.217853 -2.9711566 0.040957883
-0.69295675 -2.9639645 0.045317214
-0.5558818 -2.9658978 0.044711348
-0.50096583 -2.9653902 0.047949851
-0.47388905 -2.9637451 0.045103967
-0.28432426 -2.9639142 0.046680633
-1.1261224 -2.9711461 0.056662455
-0.8904857 -2.9686799 0.059129786
-0.66517538 -2.9670444 0.054273296
-0.52671331 -2.9649079 0.059188142
-1.035383 -2.9694228 0.06926199
-0.63644648 -2.9659848 0.062189437
3.6384273 -2.9547517 0.064294346
3.7033134 -2.9543476 0.065426931
-1.4053901 -2.9730666 0.071298257
-0.94661444 -2.9689169 0.078896023
-0.74633074 -2.9651039 0.073738739
-0.63497567 -2.9650955 0.072481088
-0.44208926 -2.9643416 0.073741361
-0.38599378 -2.9651885 0.078990892
-0.35916615 -2.9646525 0.075723514
-0.33088073 -2.9630818 0.077012368
-1.308291 -2.9713202 0.08834558
-0.74556839 -2.9681036 0.086060166
-0.97360295 -2.9681935 0.097626016
-0.94532394 -2.9699459 0.09465377
-0.85686129 -2.966007 0.099725217
-0.82889509 -2.9666805 0.096291393
-0.80123943 -2.9680581 0.092895709
-0.65906793 -2.9654746 0.097346559
-0.46413431 -2.9636645 0.097031057
-0.43705207 -2.9638424 0.094423607
-0.35312903 -2.964381 0.09480565
-0.29693305 -2.9641535 0.092683882
-1.0898294 -2.9660218 0.10984191
-1.0610025 -2.9679289 0.10681207
-0.79811895 -2.963331 0.10590552
-0.7140792 -2.9669836 0.10605948
-0.68631876 -2.9653831 0.10166266
-0.6296156 -2.9634876 0.10320406
-0.60120571 -2.9661555 0.10827615
-0.49033239 -2.9633381 0.10307936
-0.43374416 -2.9611635 0.10457455
-1.6355238 -2.9747252 0.11122792
-0.82725722 -2.9677467 0.11000063
-0.68476021 -2.9674616 0.11292753
-0.5990746 -2.9663122 0.11798122
-0.4875021 -2.9655924 0.11480995
-0.45758948 -2.9622788 0.11880799
-0.3743175 -2.964504 0.11423729
-0.31521744 -2.9641323 0.11621896
0.49126473 -2.9572504 0.11377756
0.51737392 -2.9557078 0.11932725
1.0854075 -2.9538057 0.11878471
-0.76734501 -2.968559 0.12748946
-0.65291333 -2.9668803 0.12942499
-0.62576431 -2.9657435 0.12365428
-0.57002634 -2.9658222 0.12147816
-0.51241899 -2.965121 0.1256554
-0.28108305 -2.9613717 0.1227894
0.4895283 -2.9584067 0.12313931
-1.53091 -2.9712284 0.13001527
-0.99700952 -2.964469 0.13385776
-0.880548 -2.9652891 0.13242555
-0.68012923 -2.9677613 0.1352099
0.93592048 -2.9529703 0.13779783
1.0535935 -2.9529355 0.13484915
-2.1514771 -2.9787347 0.14730689
-0.85045218 -2.9673164 0.1421435
-0.50420058 -2.9638205 0.14991894
1.1717012 -2.9522104 0.14935093
3.973984 -2.9514644 0.14034505
-1.0543715 -2.9701214 0.15995649
-0.84797621 -2.968421 0.15624347
-0.82003874 -2.9681356 0.15081298
-0.70445031 -2.9675829 0.15251237
-0.64767218 -2.9672337 0.15059634
0.48294258 -2.9589965 0.15088524
0.96233499 -2.9542353 0.15945844
1.0515059 -2.9539804 0.1540423
1.0804263 -2.9530575 0.1581068
-0.90462404 -2.9700992 0.16725469
-0.99213696 -2.9666111 0.16712634
-0.75823635 -2.9651563 0.16492985
0.50598657 -2.9576755 0.16785234
0.99065143 -2.9532051 0.16394332
1.1101042 -2.9537256 0.16227776
-0.93277192 -2.9695723 0.17272609
-0.43458927 -2.9624505 0.17518847
-2.1491022 -2.9796102 0.18410008
-2.1095858 -2.9794805 0.18064284
-1.3932043 -2.9725366 0.18953931
-1.3617402 -2.9728694 0.18511732
-1.2035923 -2.971683 0.18359074
-0.92917138 -2.968775 0.18814544
-0.75190699 -2.9665043 0.18982603
-0.72487104 -2.9663906 0.18258175
0.89917099 -2.9519296 0.18336755
-0.95727086 -2.9679794 0.19411817
-0.77950001 -2.9682901 0.19721954
-0.5458073 -2.9656944 0.19338922
1.0744689 -2.9533031 0.19727202
-1.0773777 -2.9713006 0.20083462
-0.92470396 -2.966084 0.20336193
-0.86476654 -2.9651129 0.20472403
0.92446518 -2.9535155 0.20585717
1.1026036 -2.9502246 0.20223293
1.1332375 -2.9534104 0.20763451
1.4468718 -2.9511185 0.20960736
-2.5293493 -2.9810469 0.2173674
-1.389575 -2.9726527 0.2130475
-1.1663665 -2.9722407 0.21813227
-1.1362615 -2.9712915 0.21228044
-0.7446571 -2.9679053 0.21450779
-0.53833848 -2.9672647 0.21092822
-0.41225412 -2.9665644 0.21551503
0.95334142 -2.9556158 0.21199499
-0.82985353 -2.9674149 0.22555299
-0.73985606 -2.9652374 0.22648804
0.13821295 -2.9613109 0.22663957
0.51568377 -2.9591708 0.22520705
1.0990425 -2.9503677 0.22221863
-1.040154 -2.9707208 0.23001568
-0.97844058 -2.9701092 0.23306614
-0.79888469 -2.969275 0.23108684
0.88850772 -2.9514832 0.23241635
0.9766748 -2.9519076 0.23560594
1.4422367 -2.9494371 0.2354674
-0.97403401 -2.9703059 0.24934477
-0.94590682 -2.9704313 0.24180812
-0.88529402 -2.9691033 0.24145029
-0.76303142 -2.9692085 0.24808222
-0.67474228 -2.968446 0.24288274
0.88535339 -2.9545488 0.24887659
1.1252229 -2.9527767 0.24852955
-2.1018596 -2.9796448 0.25259179
-1.1556009 -2.9669847 0.25666869
-0.78886336 -2.9659059 0.25697687
-0.57961679 -2.967998 0.25126192
1.0630809 -2.9537728 0.25555435
-1.1873628 -2.9722824 0.26400149
-1.0904334 -2.9621179 0.2609891
-0.75760025 -2.9665728 0.26035303
0.13444114 -2.9604263 0.26232013
1.000447 -2.950794 0.26032594
1.2142969 -2.9530485 0.26746279
-2.3045096 -2.981185 0.27747408
-1.7921399 -2.9753544 0.27680752
-1.4450046 -2.9739773 0.27229404
-0.9973914 -2.9701109 0.27359369
-1.0591537 -2.969188 0.27215251
0.96851718 -2.9532361 0.27116024
0.99657029 -2.9528816 0.27867705
1.2436551 -2.9513061 0.27370307
-2.7131011 -2.9850481 0.28045464
-1.2778724 -2.9723639 0.2848973
-1.0261606 -2.9713106 0.28184316
-0.77815467 -2.9635522 0.28257903
0.9043963 -2.9564061 0.28965843
-1.2123471 -2.9728034 0.29138559
-1.1466482 -2.970156 0.2955966
-0.99224818 -2.9703341 0.29020399
-1.0195922 -2.9677632 0.29856387
-0.77406198 -2.9686584 0.29588404
0.13893616 -2.9544182 0.29000536
0.99207115 -2.9540372 0.29687551
1.2392329 -2.9523966 0.29622227
-0.89264184 -2.9705057 0.30950415
1.3980633 -2.9525664 0.30652353
-2.0514402 -2.9776249 0.31787667
-1.2068871 -2.973 0.31173757
-1.1418159 -2.9722266 0.31500676
-1.0143141 -2.9689419 0.31566486
0.53270382 -2.9543121 0.31709898
0.98695534 -2.9542603 0.31489927
1.1402758 -2.9534082 0.31718284
-2.0898728 -2.9774058 0.32396379
-0.88627428 -2.9688733 0.32408226
-0.66843295 -2.9687917 0.32015401
0.8939113 -2.9559379 0.32244891
1.1061425 -2.9544699 0.32958496
-1.0721427 -2.9723504 0.33445454
-0.66238713 -2.9691544 0.33107126
0.98184854 -2.955442 0.33292767
1.1983852 -2.951751 0.33275321
-1.8166876 -2.9758782 0.34454188
-1.0374235 -2.9719856 0.342563
0.94835514 -2.9551027 0.34119543
1.0716959 -2.9543173 0.34080705
-2.0832129 -2.9767163 0.35951248
-0.839212 -2.9635999 0.3553381
0.13269606 -2.9631326 0.35403505
0.97582346 -2.9547455 0.35065353
1.4871967 -2.9517174 0.35346919
-0.99567556 -2.9697285 0.36607748
0.96950477 -2.9540622 0.36826178
0.8735103 -2.9462719 0.36977836
0.9366774 -2.9565883 0.37568334
1.0596083 -2.9548028 0.37950295
1.3491602 -2.9518807 0.37315324
-2.0405192 -2.98037 0.38805035
-1.3146399 -2.9734879 0.38876903
-0.79384774 -2.9677222 0.38405606
1.1514713 -2.9538608 0.38804147
-1.0166725 -2.9709313 0.39390504
-0.85298026 -2.9694848 0.39629957
-0.7543326 -2.9684298 0.39631698
0.99037778 -2.9537034 0.39629698
-1.6584315 -2.9773412 0.40260693
0.44595909 -2.9604726 0.40312958
0.12100443 -2.9604287 0.4152109
0.43921641 -2.960001 0.41132763
0.12748551 -2.9596841 0.41279316
0.98452055 -2.9568193 0.41462943
-1.1003177 -2.9709687 0.42769995
-0.83661401 -2.9654295 0.42370933
0.52876759 -2.9505508 0.42553666
-1.4709113 -2.9756963 0.436546
-0.96689153 -2.9718986 0.43185109
0.97650671 -2.9542918 0.43208539
1.1024343 -2.9557941 0.43931141
0.8740561 -2.9525292 0.44603235
-1.7511598 -2.9737623 0.45757499
0.43784076 -2.9593399 0.45407754
-0.94997257 -2.9707017 0.46360561
0.50099152 -2.9603379 0.46502793
0.96144593 -2.9549308 0.46734741
0.89254868 -2.9537625 0.47520584
1.1873555 -2.9542322 0.47190961
1.049925 -2.952883 0.48575988
0.43275967 -2.9546165 0.49698883
0.87696606 -2.957345 0.50792664
0.93695927 -2.9569247 0.51931626
1.0692325 -2.9542303 0.51760912
0.9009437 -2.9522629 0.5212177
1.1320006 -2.9504123 0.52230227
0.86560076 -2.9482484 0.52225482
0.94427961 -2.956769 0.56768012
-2.8544891 -2.9779301 0.59738433
-2.8980005 -2.9708931 0.60663301
0.51584619 -2.9508157 0.60634673
0.98574477 -2.9572871 0.61547196
1.4049814 -2.9541411 0.61396211
2.8712623 -2.9430764 0.61966169
1.7692022 -2.9519093 0.62383574
1.111684 -2.9550445 0.63803291
1.8034949 -2.9514914 0.63564366
0.8560757 -2.9517679 0.64842576
0.40990263 -2.9470453 0.72076505
2.1167815 -2.9283757 0.74351692
2.1018536 -2.9456842 0.82295257
-0.36105481 -2.9494879 0.85191876
2.11324 -2.9285915 0.87066168
0.39395964 -2.9375045 0.88563305
0.81033349 -2.9285283 1.0726401
0.37789953 -2.9398098 1.0805565
2.0764782 -2.9219549 1.2213553
0.46042019 -2.9386408 1.2414467
0.77403402 -2.9187057 1.4357523
2.0641472 -2.9135134 1.4711424
2.0538921 -2.922523 1.5748004
2.0339324 -2.9143267 1.7355974
2.0343988 -2.9077747 1.7979987
2.0070336 -2.9074025 2.0388534
1.9993905 -2.9009748 2.1769948
6.3393483 -2.8727059 2.1974633
2.6741626 -2.8869092 2.3541367
1.9662127 -2.8851774 2.463042
6.246376 -2.8612413 2.7993691
1.9439247 -2.8687789 2.8130739
6.2544026 -2.8419259 3.0702028
1.9276145 -2.8696015 3.1229901
1.1915588 -2.8565021 3.316067
1.8519115 -2.8566649 3.3802946
1.888961 -2.8612897 3.4471338
1.8650144 -2.8560562 3.7003922
1.8560174 -2.8360715 3.8458452
1.8239341 -2.8385189 4.1377325
1.4318535 -2.8143435 4.7264156
1.7104645 -2.8140748 4.7417488
2.4247406 -2.8194039 4.7989163
3.6571057 -2.8065736 4.889082
4.2650652 -2.7972095 4.9403586
4.9630284 -2.8039522 4.9948483
5.1548438 -2.7904222 5.0092344
