# .PCD v0.7 - Point Cloud Data file format
VERSION 0.7
FIELDS x y z
SIZE 4 4 4
TYPE F F F
COUNT 1 1 1
WIDTH 1494
HEIGHT 1
VIEWPOINT 0 0 0 1 0 0 0
POINTS 1494
DATA ascii
1.3607738 -0.93561733 -1.1302524
1.3686702 -0.92125458 -1.1366466
1.3158752 -0.91769409 -1.1330758
1.4110261 -0.91662788 -1.1301192
1.3661827 -0.89974636 -1.1346323
1.3175826 -0.88005859 -1.1345085
1.360751 -0.87652016 -1.1302339
1.4537344 -2.8771067 -1.1225491
1.4606787 -2.8349659 -1.127782
1.5056062 -2.8293316 -1.1203372
1.5105988 -2.7846298 -1.1239645
1.4593179 -2.7778013 -1.1267565
1.4056809 -2.7645991 -1.1259431
1.5128142 -2.7358959 -1.1255741
1.4607995 -2.7275589 -1.1278731
1.5098754 -2.67909 -1.123439
1.4572275 -2.6692109 -1.1251813
1.5062515 -2.6225619 -1.1208061
1.5662723 -2.5948706 -1.1225266
1.5094628 -2.5793474 -1.1231393
1.5117043 -2.5354593 -1.1247678
1.4585567 -2.5244546 -1.1261829
1.508149 -2.4828818 -1.1221848
1.4570988 -2.4752502 -1.1250844
1.5141923 -2.4473505 -1.1265755
1.4588681 -2.4327059 -1.1264176
1.5109849 -2.3976023 -1.1242452
1.4094614 -2.381737 -1.1288966
1.4591953 -2.3887188 -1.1266642
1.4619387 -2.3496749 -1.1287315
1.4089572 -2.3372855 -1.1285028
1.5686941 -2.3279934 -1.1242224
1.5149037 -2.3176794 -1.1270924
1.4627751 -2.3083932 -1.1293617
1.4635642 -2.2271104 -1.1299564
1.5088016 -2.2259974 -1.1226588
1.6246221 -2.2170107 -1.1209852
1.5656663 -2.2010131 -1.1221023
1.5158761 -2.1966138 -1.1277988
1.4620086 -2.184797 -1.1287842
1.4079733 -2.1320329 -1.1277341
1.5126742 -2.1145165 -1.1254725
1.4585065 -2.1023231 -1.1261451
1.5090395 -2.0719047 -1.1228317
1.5065438 -2.0317662 -1.1210184
1.4515734 -2.0184469 -1.1209207
1.5681596 -2.016048 -1.1238481
1.462095 -1.9973056 -1.1288494
1.5139972 -1.9704287 -1.1264337
1.5648347 -1.9413226 -1.12152
1.4586211 -1.9226266 -1.1262316
1.5086166 -1.9286335 -1.1225244
1.5072583 -1.8928635 -1.1215376
1.4629519 -1.8609605 -1.129495
1.5100476 -1.8629802 -1.1235641
1.5182509 -1.8402556 -1.1295242
1.4593232 -1.8235054 -1.1267605
1.4598027 -1.7919325 -1.1271219
1.508361 -1.7957711 -1.1223388
1.407874 -1.7826149 -1.1276565
1.6243304 -1.7897669 -1.1207883
1.5119272 -1.7683167 -1.1249298
1.4542581 -1.7534827 -1.1229438
1.4615033 -1.7312722 -1.1284034
1.5081861 -1.7020081 -1.1222117
1.5162265 -1.6809446 -1.1280534
1.4596286 -1.6683754 -1.1269907
1.5108578 -1.6451194 -1.1241528
1.5696654 -1.628872 -1.1249025
1.512977 -1.6181564 -1.1256925
1.4606643 -1.5821795 -1.1277711
1.5139613 -1.5618858 -1.1264076
1.4592284 -1.5523803 -1.1266892
1.5103136 -1.5300677 -1.1237575
1.5631286 -1.5361596 -1.1203253
1.5717672 -1.5169302 -1.1263741
1.4621788 -1.5003239 -1.1289124
1.5150727 -1.507356 -1.1272151
1.5139681 -1.4789977 -1.1264125
1.5125793 -1.4507817 -1.1254035
1.5147334 -1.4264059 -1.1269686
1.5649039 -1.4290357 -1.1215684
1.4097434 -1.4132351 -1.129117
1.568781 -1.4062905 -1.1242832
1.5140918 -1.3996624 -1.1265025
1.6278023 -1.3892481 -1.1231302
1.563234 -1.3752475 -1.1203991
1.625912 -1.3616067 -1.1218551
1.5673043 -1.3532503 -1.1232492
1.5661376 -1.3018656 -1.1224322
1.4576235 -1.290105 -1.1254798
1.5148566 -1.299211 -1.127058
1.510974 -1.2713485 -1.1242373
1.5675466 -1.2783334 -1.1234189
1.4108187 -1.2653083 -1.1299572
1.460958 -1.268901 -1.1279925
1.6266822 -1.2614009 -1.1223747
1.5639853 -1.2509594 -1.1209252
1.4588747 -1.2431369 -1.1264226
1.505481 -1.2425394 -1.1202463
1.5717655 -1.2331452 -1.1263729
1.5117701 -1.224015 -1.1248156
1.5118408 -1.200485 -1.124867
1.5697922 -1.2076384 -1.1249912
1.4592658 -1.1965226 -1.1267173
1.6275926 -1.1894565 -1.1229887
1.4104542 -1.171837 -1.1296723
1.4604741 -1.1744592 -1.1276278
1.5089812 -1.1748714 -1.1227894
1.5641202 -1.1795844 -1.1210197
1.5113343 -1.1537129 -1.124499
1.4574677 -1.149196 -1.1253624
1.5638115 -1.1330125 -1.1208036
1.5073295 -1.1278269 -1.1215893
1.4096199 -1.104152 -1.1290206
1.4534457 -1.1012681 -1.1223315
1.5079037 -1.1057762 -1.1220065
1.5675935 -1.0903808 -1.1234517
1.5138296 -1.0879225 -1.1263119
1.4538255 -1.0795958 -1.1226177
1.5098592 -1.0629222 -1.1234273
1.5656601 -1.0666381 -1.122098
1.405593 -1.0576065 -1.1258744
1.4560682 -1.0595474 -1.1243078
1.4615831 -1.0420729 -1.1284636
1.4103544 -1.039939 -1.1295943
1.5056523 -1.0380942 -1.1203707
1.4631791 -1.000613 -1.1296662
1.6257647 -1.0053896 -1.1217558
1.4078681 -0.99603951 -1.1276519
1.5121032 -0.99963242 -1.1250577
1.4549804 -0.97391981 -1.1234881
1.3595507 -0.95479977 -1.129262
1.4078877 -0.93460327 -1.1276672
1.4561416 -0.9335202 -1.1243631
1.5091271 -0.93465155 -1.1228954
1.4585922 -0.91480178 -1.1262097
1.5651414 -0.91577047 -1.1217347
1.4091318 -0.89542472 -1.1286391
1.4516424 -0.89020199 -1.1209728
1.5630565 -0.89380008 -1.1202749
1.4566123 -0.87341261 -1.1247178
1.4515947 0.21095294 -1.1209368
1.408298 0.22329813 -1.1279879
1.4590565 0.22795738 -1.1265596
1.5639005 0.22069399 -1.1208658
1.4077356 0.23899986 -1.1275483
1.4513147 0.24298728 -1.1207258
1.5103712 0.2491146 -1.1237992
1.508812 0.26539826 -1.1226664
1.564129 0.35639399 -1.1210258
1.6247059 0.36525628 -1.1210417
1.5666256 0.37408662 -1.122774
1.6254196 0.40068433 -1.121523
1.5574824 -2.8909371 -1.1163718
1.6111268 -2.8988051 -1.1118824
1.5035738 -2.8808854 -1.1188606
1.6179358 -2.8560345 -1.1164752
1.5611714 -2.842546 -1.118955
1.6716198 -2.8088131 -1.1100713
1.61298 -2.7935667 -1.1131324
1.5610821 -2.7884982 -1.1188924
1.6158048 -2.746172 -1.1150378
1.554773 -2.7247851 -1.1144747
1.5533119 -2.6712549 -1.1134516
1.6139246 -2.6421576 -1.1137695
1.5592922 -2.631809 -1.1176392
1.6199335 -2.6033633 -1.1178226
1.6721524 -2.6081393 -1.1104172
1.6725627 -2.5612855 -1.1106837
1.5621245 -2.5403032 -1.1196223
1.6105372 -2.5406888 -1.1114848
1.6215564 -2.5117376 -1.1189173
1.5622473 -2.494014 -1.1197083
1.6210511 -2.4654155 -1.1185764
1.5588367 -2.4431605 -1.1173201
1.6127751 -2.4083438 -1.1129942
1.5548196 -2.3925753 -1.1145073
1.6137116 -2.3664057 -1.1136259
1.5578488 -2.3540061 -1.1166284
1.5047015 -2.3441746 -1.1196799
1.6738653 -2.3408279 -1.1115296
1.6162748 -2.3277228 -1.1153549
1.6748694 -2.3005083 -1.1121817
1.5034635 -2.2585063 -1.1187805
1.5611933 -2.2344599 -1.1189703
1.6114815 -2.2385883 -1.1121217
1.6723168 -2.1768315 -1.1105241
1.6134025 -2.1623764 -1.1134174
1.5504339 -2.1404753 -1.1114365
1.5583403 -2.11339 -1.1169726
1.6098392 -2.1192997 -1.111014
1.6169789 -2.091213 -1.1158297
1.5577562 -2.0751557 -1.1165636
1.6153543 -2.052171 -1.1147339
1.5622795 -2.044472 -1.1197308
1.6110065 -2.0104251 -1.1118013
1.6159694 -1.9811608 -1.1151489
1.560784 -1.9709743 -1.1186836
1.6119162 -1.94125 -1.1124148
1.6737137 -1.923404 -1.1114311
1.6162033 -1.9121867 -1.1153065
1.5582465 -1.8988999 -1.1169069
1.6125063 -1.8740729 -1.1128129
1.555227 -1.8617198 -1.1147927
1.6155386 -1.844523 -1.1148582
1.5576386 -1.8317622 -1.1164812
1.5591519 -1.8012041 -1.1175408
1.6134559 -1.8095487 -1.1134534
1.7400445 -1.8093073 -1.1111468
1.6744452 -1.7917581 -1.1119062
1.5609422 -1.7714458 -1.1187944
1.6105926 -1.7428735 -1.1115222
1.5600301 -1.739062 -1.1181557
1.6783556 -1.7327806 -1.1144457
1.6092401 -1.7104625 -1.1106098
1.557567 -1.7054853 -1.1164311
1.616856 -1.688156 -1.1157469
1.5583963 -1.6761124 -1.1170118
1.5626063 -1.6508313 -1.1199597
1.6161381 -1.6572938 -1.1152626
1.6113155 -1.6226826 -1.1120096
1.7408571 -1.5946937 -1.1116546
1.5044515 -1.5801237 -1.1194984
1.6114188 -1.5649744 -1.1120794
1.6152179 -1.5403996 -1.1146419
1.6726909 -1.520499 -1.1107669
1.6168385 -1.5139998 -1.1157351
1.6807047 -1.4999912 -1.1159711
1.5623 -1.4802064 -1.1197451
1.6149341 -1.4846084 -1.1144505
1.6838573 -1.4752227 -1.1180185
1.6212791 -1.4632902 -1.1187302
1.6773376 -1.4421788 -1.1137846
1.6155212 -1.4311219 -1.1148465
1.6214182 -1.4098972 -1.1188241
1.6734809 -1.3855628 -1.11128
1.6817728 -1.366375 -1.1166648
1.7407858 -1.3463995 -1.1116101
1.6223886 -1.3329674 -1.1194786
1.5625101 -1.3237251 -1.1198922
1.7417728 -1.3212587 -1.1122268
1.6172092 -1.3033769 -1.115985
1.6192865 -1.2801517 -1.1173862
1.674257 -1.283597 -1.111784
1.6838638 -1.2661257 -1.1180227
1.6827322 -1.2404956 -1.1172879
1.6088996 -1.222988 -1.1103802
1.6186554 -1.2065419 -1.1169605
1.5616413 -1.1543967 -1.1192839
1.6109585 -1.1534675 -1.1117688
1.6131163 -1.1318297 -1.1132243
1.7434005 -1.1249423 -1.1132438
1.6229417 -1.1158205 -1.1198517
1.5587738 -1.1065227 -1.1172761
1.616145 -1.0881933 -1.1152673
1.6715665 -1.0899098 -1.1100367
1.7402269 -1.0760036 -1.1112608
1.6141243 -1.0642449 -1.1139042
1.6147813 -1.0423644 -1.1143473
1.6745505 -1.0463645 -1.1119746
1.5556648 -1.0376064 -1.1150992
1.6181593 -1.0224628 -1.1166259
1.6735349 -1.0232656 -1.111315
1.5604205 -1.0190535 -1.1184292
1.6834681 -1.0071969 -1.1177657
1.556391 -0.99475539 -1.1156076
1.6753591 -0.98010659 -1.1124997
1.5044293 -0.97326213 -1.1194823
1.5514106 -0.97015464 -1.1121203
1.6119207 -0.97484624 -1.1124179
1.5029285 -0.95136243 -1.1183919
1.5570967 -0.95266539 -1.1161019
1.6095791 -0.95193857 -1.1108384
1.5568123 -0.93149984 -1.1159027
1.6107392 -0.93138874 -1.111621
1.5029502 -0.91016442 -1.1184076
1.6147054 -0.91264361 -1.1142963
1.5037835 -0.89034706 -1.119013
1.611789 -0.89001423 -1.112329
1.5592988 -0.87108606 -1.1176437
1.500089 -0.8679539 -1.1163288
1.6109228 -0.86878687 -1.1117448
1.6127805 -0.081676915 -1.1129978
1.555074 -0.062628813 -1.1146854
1.6086124 -0.064382069 -1.1101865
1.6792301 -0.067193426 -1.1150135
1.6101152 -0.047489397 -1.1112001
1.6805103 -0.03223332 -1.1158448
1.5554408 -0.029447202 -1.1149423
1.5517612 -0.012743475 -1.1123658
1.5545138 0.0037371744 -1.1142932
1.67457 0.0028877202 -1.1119872
1.5546914 0.020298878 -1.1144176
1.6124167 0.020333579 -1.1127524
1.6797932 0.020260924 -1.1153792
1.6124781 0.037306692 -1.1127939
1.5555105 0.053433534 -1.1149912
1.6115876 0.054271076 -1.1121933
1.6135831 0.088273212 -1.1135392
1.6172955 0.10543051 -1.1160433
1.5540892 0.11969506 -1.1139959
1.7444692 0.12797448 -1.1139116
1.6102979 0.15610714 -1.1113234
1.5575006 0.16981769 -1.1163846
1.6775609 0.16008145 -1.1139295
1.6193013 0.17388986 -1.1173962
1.6108133 0.19022347 -1.111671
1.5537305 0.20280638 -1.1137447
1.618258 0.22526021 -1.1166925
1.5535654 0.23619762 -1.1136292
1.675725 0.26539183 -1.1127373
1.5618618 0.27097285 -1.1194383
1.6103332 0.275805 -1.1113472
1.7450179 0.27260605 -1.1142546
1.5511951 0.28616688 -1.1119695
1.5623329 0.30490923 -1.1197683
1.6148469 0.31106019 -1.1143917
1.6809496 0.31942654 -1.1161301
1.6193644 0.32923028 -1.1174387
1.61064 0.34501329 -1.1115541
1.5609335 0.39003429 -1.1187884
1.7402395 0.4184877 -1.1112688
1.7316247 -2.9328127 -1.1058856
1.670033 -2.9144628 -1.1090409
1.7287381 -2.8731041 -1.1040817
1.6659241 -2.8524704 -1.1063725
1.7251015 -2.8136845 -1.1018094
1.7242084 -2.7602277 -1.1012514
1.6709604 -2.7554901 -1.1096431
1.7287102 -2.7166553 -1.1040643
1.6676775 -2.6991642 -1.1075112
1.6074766 -2.681025 -1.1094203
1.7296374 -2.6684136 -1.1046438
1.6627016 -2.6415148 -1.1042798
1.7279187 -2.6171913 -1.1035699
1.7224427 -2.5614853 -1.100148
1.7241944 -2.5178361 -1.1012427
1.6667364 -2.5059586 -1.1069
1.7339717 -2.4867852 -1.1073521
1.6701488 -2.4658232 -1.1091162
1.6672964 -2.4172637 -1.1072637
1.6654624 -2.3712718 -1.1060727
1.7332518 -2.3548355 -1.1069022
1.7336477 -2.3135128 -1.1071497
1.6616565 -2.2414827 -1.1036011
1.7284677 -2.225457 -1.1039128
1.6693827 -2.2121227 -1.1086185
1.7251012 -2.1817799 -1.1018093
1.7954766 -2.1687417 -1.1020079
1.7339455 -2.1544361 -1.1073357
1.6663636 -2.1305923 -1.106658
1.7337606 -2.1161997 -1.1072203
1.6695861 -2.0970812 -1.1087506
1.7278413 -2.0716615 -1.1035213
1.6655184 -2.0549648 -1.106109
1.7922637 -2.0523422 -1.1000774
1.6679537 -2.0217297 -1.1076906
1.6712062 -1.9900308 -1.1098028
1.7264227 -1.9975982 -1.102635
1.6711576 -1.9548868 -1.1097711
1.7233481 -1.9242477 -1.1007138
1.7248871 -1.891984 -1.1016755
1.6674911 -1.8822955 -1.1073902
1.7973229 -1.8828061 -1.1031172
1.7273214 -1.8612033 -1.1031966
1.6687044 -1.8504164 -1.1081781
1.7937905 -1.8456992 -1.1009947
1.7331837 -1.834574 -1.1068598
1.6689657 -1.8179773 -1.1083478
1.7945349 -1.7813351 -1.1014421
1.7257038 -1.7621765 -1.1021858
1.667827 -1.7528534 -1.1076082
1.794392 -1.7493579 -1.1013561
1.7306411 -1.7358215 -1.105271
1.6684633 -1.6916313 -1.1080215
1.7924248 -1.6851995 -1.1001742
1.7332462 -1.6767951 -1.1068988
1.665751 -1.6586181 -1.1062601
1.7925938 -1.6549287 -1.1002758
1.7308213 -1.6442647 -1.1053835
1.8004973 -1.6322567 -1.1050247
1.6639686 -1.6270797 -1.1051025
1.7320023 -1.6156918 -1.1061214
1.668324 -1.6020695 -1.107931
1.8007684 -1.6027809 -1.1051875
1.6633157 -1.5682855 -1.1046786
1.7932564 -1.5667315 -1.1006739
1.7314903 -1.5570167 -1.1058016
1.6612228 -1.5378443 -1.1033195
1.7317917 -1.5287896 -1.1059899
1.7277447 -1.497068 -1.1034611
1.7363135 -1.4768515 -1.1088154
1.7241324 -1.4389422 -1.1012039
1.8003134 -1.4320774 -1.1049142
1.731546 -1.4182408 -1.1058364
1.669107 -1.4082116 -1.1084394
1.7304486 -1.3906167 -1.1051507
1.8682442 -1.3888898 -1.1011313
1.8021423 -1.3795407 -1.1060131
1.7325698 -1.3659589 -1.1064762
1.8041039 -1.3545164 -1.1071917
1.6657207 -1.3272989 -1.1062404
1.7921703 -1.3192126 -1.1000212
1.6666088 -1.3026452 -1.1068171
1.7325636 -1.2885786 -1.1064723
1.7337333 -1.2642521 -1.1072031
1.7224494 -1.2309945 -1.1001523
1.6664188 -1.2038606 -1.1066937
1.7223762 -1.2064294 -1.1001065
1.792486 -1.1932231 -1.1002109
1.6682914 -1.1812489 -1.1079099
1.6678039 -1.1571481 -1.1075932
1.7332575 -1.1418378 -1.1069059
1.7972114 -1.1476758 -1.1030502
1.6663687 -1.1326433 -1.1066612
1.6690605 -1.1112598 -1.1084093
1.7237562 -1.0885353 -1.1009688
1.7997508 -1.0778309 -1.1045761
1.6680194 -1.0647168 -1.1077332
1.7304354 -1.0467867 -1.1051424
1.7233539 -1.0197039 -1.1007174
1.7943009 -0.98239386 -1.1013014
1.7281232 -0.97783023 -1.1036975
1.8688126 -0.96728295 -1.1014594
1.6677333 -0.95371133 -1.1075475
1.7294785 -0.95650202 -1.1045445
1.668142 -0.93237519 -1.1078129
1.7306502 -0.9352234 -1.1052766
1.6676087 -0.91067582 -1.1074666
1.7370193 -0.91695511 -1.1092565
1.6691657 -0.89032954 -1.1084777
1.7239575 -0.88826251 -1.1010946
1.736171 -0.87333465 -1.1087264
1.7930346 -0.87097406 -1.1005405
1.6044152 -0.098020874 -1.1073554
1.6708642 -0.084112711 -1.1095806
1.7327164 -0.086804189 -1.1065677
1.6665281 -0.049018785 -1.1067647
1.7323543 -0.033172403 -1.1063415
1.7955282 -0.034576815 -1.1020389
1.6036379 -0.013345703 -1.1068311
1.6608371 -0.014116358 -1.1030689
1.7243387 -0.015081747 -1.1013328
1.7968638 -0.016320528 -1.1028414
1.607259 0.0034664746 -1.1092736
1.7297546 0.0025592558 -1.104717
1.7946351 0.0020271877 -1.1015022
1.869464 0.0012913991 -1.1018355
1.7257122 0.020403665 -1.1021911
1.7956971 0.020290436 -1.1021404
1.662245 0.037740175 -1.1039833
1.7232338 0.038162164 -1.1006423
1.7991941 0.038572527 -1.1042416
1.6655363 0.055071075 -1.1061207
1.7265602 0.055929393 -1.1027209
1.608088 0.071164362 -1.1098328
1.6603148 0.072295941 -1.1027298
1.6625139 0.089649066 -1.1041579
1.726882 0.091484606 -1.102922
1.7348969 0.10960143 -1.1079303
1.6043174 0.12179744 -1.1072894
1.6640145 0.12436827 -1.1051323
1.6633171 0.14167938 -1.1046795
1.7259535 0.14482285 -1.1023418
1.7933044 0.14821635 -1.1007028
1.7276376 0.16276222 -1.1033942
1.7924161 0.16646922 -1.1001689
1.6640522 0.17648579 -1.1051569
1.7266498 0.18053512 -1.1027769
1.7939564 0.18492161 -1.1010945
1.6646458 0.19395223 -1.1055423
1.6055162 0.20673746 -1.108098
1.6609327 0.21100579 -1.1031311
1.6637753 0.22876076 -1.1049771
1.6639822 0.24627446 -1.1051114
1.7943238 0.24013613 -1.1013153
1.7374089 0.25349081 -1.1094999
1.6706654 0.28233194 -1.1094515
1.7280653 0.28835991 -1.1036614
1.6069026 0.29248542 -1.1090331
1.6596653 0.29827046 -1.102308
1.7278296 0.3063935 -1.1035141
1.8669864 0.30367136 -1.1004051
1.7923001 0.31385225 -1.1000993
1.7266184 0.32430205 -1.1027573
1.6647232 0.33439365 -1.1055926
1.794417 0.33278447 -1.1013712
1.7361773 0.34412763 -1.1087303
1.6616604 0.35154772 -1.1036036
1.804864 0.35325876 -1.1076485
1.6626091 0.36948586 -1.1042197
1.7288212 0.36104289 -1.1041337
1.6059426 0.37887266 -1.1083857
1.7288752 0.37931556 -1.1041675
1.7939754 0.37005717 -1.1011058
1.6675513 0.38833585 -1.1074291
1.7354716 0.39900309 -1.1082894
1.6673957 0.40622044 -1.1073282
1.7963406 0.40809587 -1.102527
1.6629889 0.42317435 -1.1044663
1.8508583 -2.9026146 -1.0910935
1.7794906 -2.8718905 -1.0924025
1.7906128 -2.8366737 -1.0990855
1.7840095 -2.7741227 -1.0951177
1.7895051 -2.7318943 -1.0984198
1.7903315 -2.6834228 -1.0989164
1.852394 -2.6500707 -1.0919802
1.7831824 -2.6241157 -1.0946208
1.8513904 -2.6009936 -1.0914007
1.7891581 -2.5855126 -1.0982113
1.784444 -2.5322263 -1.0953788
1.8542691 -2.512723 -1.0930628
1.785068 -2.4877262 -1.0957538
1.85211 -2.4650457 -1.0918162
1.7807562 -2.4372833 -1.093163
1.7218443 -2.4248633 -1.0997741
1.7869608 -2.4023306 -1.0968912
1.8592604 -2.3876455 -1.0959445
1.7182019 -2.3764098 -1.0974981
1.7832193 -2.3546116 -1.094643
1.7811735 -2.3101525 -1.0934137
1.7803206 -2.2681491 -1.0929012
1.7853463 -2.2344534 -1.0959209
1.8593374 -2.2234714 -1.095989
1.7894199 -2.2001011 -1.0983686
1.8535044 -2.1773148 -1.0926212
1.784529 -2.1172888 -1.0954299
1.786168 -2.0819211 -1.0964147
1.8549321 -2.0658593 -1.0934455
1.8589321 -2.0338893 -1.095755
1.7213962 -2.027411 -1.0994941
1.7876604 -2.0108862 -1.0973115
1.8500272 -1.9882331 -1.0906137
1.7893574 -1.977326 -1.0983311
1.9274187 -1.9799813 -1.0902021
1.7214619 -1.9566256 -1.0995352
1.8545099 -1.9579201 -1.0932018
1.7882024 -1.9411352 -1.0976371
1.8573991 -1.9263207 -1.0948699
1.7872705 -1.9058049 -1.0970771
1.8542565 -1.8222682 -1.0930555
1.7872733 -1.8061616 -1.0970788
1.8577157 -1.7931218 -1.0950526
1.8644077 -1.735687 -1.0989163
1.7807758 -1.7046674 -1.0931747
1.7198439 -1.6939158 -1.0985241
1.8555386 -1.6960652 -1.0937957
1.8496032 -1.6598713 -1.0903689
1.8548646 -1.6343967 -1.0934066
1.8495766 -1.5998145 -1.0903536
1.8646579 -1.5835222 -1.0990607
1.8650138 -1.554559 -1.0992662
1.7915047 -1.5363774 -1.0996213
1.9331925 -1.5372506 -1.0934025
1.8636739 -1.5245377 -1.0984926
1.7866802 -1.5038029 -1.0967225
1.8528576 -1.4871162 -1.0922478
1.9346192 -1.4808764 -1.0941933
1.7863605 -1.4755622 -1.0965303
1.8558073 -1.4615048 -1.0939509
1.7857552 -1.4474463 -1.0961667
1.8499472 -1.4291538 -1.0905676
1.9327325 -1.4232752 -1.0931475
1.7893467 -1.3961345 -1.0983247
1.8564484 -1.3531262 -1.094321
1.8530208 -1.324158 -1.092342
1.7914145 -1.2928559 -1.0995672
1.8537043 -1.298545 -1.0927367
1.7809519 -1.2597297 -1.0932806
1.8580487 -1.2501692 -1.0952449
1.7884029 -1.2399815 -1.0977576
1.9352666 -1.2381421 -1.0945523
1.7920204 -1.2176052 -1.0999312
1.8585 -1.2000288 -1.0955055
1.7213445 -1.181448 -1.0994618
1.8655316 -1.1797771 -1.0995651
1.7808464 -1.1609274 -1.0932171
1.719344 -1.1560756 -1.0982118
1.8595222 -1.1512364 -1.0960957
1.9308006 -1.1592649 -1.0920767
1.8494195 -1.1205246 -1.0902628
1.7857745 -1.116244 -1.0961783
1.8649936 -1.1060699 -1.0992545
1.7883183 -1.0942024 -1.0977068
1.8557805 -1.052876 -1.0939354
1.7821823 -1.0437663 -1.0940199
1.8593111 -1.0314574 -1.0959737
1.9338133 -1.0390352 -1.0937467
1.7902105 -1.0255812 -1.0988437
1.9301291 -1.0132418 -1.0917045
1.7888969 -1.0019608 -1.0980544
1.8564327 -1.006544 -1.094312
1.7175161 -0.99375826 -1.0970695
1.7809806 -0.95246404 -1.0932977
1.7906563 -0.93556261 -1.0991116
1.7908548 -0.91356313 -1.0992309
1.8544641 -0.91441959 -1.0931753
1.8544508 -0.89210796 -1.0931677
1.7869459 -0.88960052 -1.0968821
1.8498377 -0.091672741 -1.0905043
1.7830049 -0.088652633 -1.0945141
1.7847446 -0.070547946 -1.0955595
1.8619975 -0.073708177 -1.0975248
1.721719 -0.068236835 -1.0996958
1.7207463 -0.050428808 -1.099088
1.7889183 -0.052548371 -1.0980672
1.8498 -0.054287106 -1.0904826
1.9299839 -0.037700199 -1.0916239
1.8647795 -0.017414005 -1.099131
1.8514918 0.020313811 -1.0914593
1.928463 0.020115877 -1.0907809
1.8567585 0.038971145 -1.0945001
1.7879828 0.05677608 -1.0975052
1.8514918 0.057628475 -1.0914593
1.7204275 0.073573098 -1.0988889
1.7800653 0.074821174 -1.0927478
1.8582073 0.076424003 -1.0953366
1.782297 0.093020581 -1.0940888
1.856988 0.095120698 -1.0946325
1.9296242 0.09713041 -1.0914246
1.7921016 0.11158228 -1.09998
1.8556274 0.11379567 -1.093847
1.8636433 0.1329273 -1.098475
1.8611325 0.15159813 -1.0970254
1.9337542 0.15522969 -1.0937139
1.8558885 0.17004237 -1.0939977
1.8608747 0.1892266 -1.0968765
1.7221487 0.19798334 -1.0999643
1.8510348 0.20718744 -1.0911955
1.7209004 0.21569841 -1.0991843
1.7880782 0.22107667 -1.0975626
1.8540065 0.22626883 -1.0929111
1.7220534 0.23368749 -1.0999048
1.8559687 0.24532706 -1.0940441
1.7859281 0.25755966 -1.0962706
1.8551998 0.26412547 -1.0936002
1.7876287 0.27618608 -1.0972924
1.856009 0.28315049 -1.0940673
1.9343885 0.29134825 -1.0940655
1.9289191 0.31015155 -1.0910337
1.8528943 0.32064667 -1.0922689
1.9371845 0.33095339 -1.0956154
1.8558406 0.34014174 -1.0939701
1.8560634 0.35927415 -1.0940987
1.8535721 0.37796465 -1.0926603
1.7905822 0.38814336 -1.099067
1.8543562 0.39728948 -1.0931131
1.9314171 0.40889949 -1.0924184
1.8592534 0.41752419 -1.0959405
1.9228209 -2.9316971 -1.0876534
1.9127897 -2.8628836 -1.082093
1.8415956 -2.8348172 -1.0857457
1.913038 -2.8111606 -1.0822307
1.8486506 -2.7937889 -1.089819
1.9174905 -2.7667484 -1.0846988
1.8473188 -2.7409389 -1.0890501
1.9170562 -2.7162054 -1.084458
1.8474634 -2.6914861 -1.0891335
1.9204016 -2.6721044 -1.0863124
1.9226646 -2.6273768 -1.0875669
1.9210193 -2.5782161 -1.0866549
1.848135 -2.5498292 -1.0895212
1.9210439 -2.532335 -1.0866684
1.9182205 -2.4836361 -1.0851035
1.9945652 -2.4691243 -1.0816554
1.9246542 -2.4479241 -1.0886697
1.9941354 -2.4249854 -1.0814269
1.8448278 -2.4115708 -1.0876118
1.9160588 -2.3936982 -1.0839051
1.9961896 -2.3847048 -1.0825191
1.918602 -2.3545816 -1.0853149
1.9941294 -2.3402207 -1.0814236
1.8485544 -2.331661 -1.0897633
1.9242742 -2.3199892 -1.088459
1.8488474 -2.2908254 -1.0899326
1.9939909 -2.298841 -1.08135
1.9205347 -2.2745864 -1.0863862
1.9964622 -2.2612133 -1.082664
1.9144896 -2.1881232 -1.0830353
1.9258518 -2.1625726 -1.0893335
1.9937024 -2.1408 -1.0811965
1.8428679 -2.1264572 -1.0864803
1.9213744 -2.1194427 -1.0868517
1.8444659 -2.0908346 -1.0874028
1.9264536 -2.0876861 -1.0896671
1.9940667 -2.0662782 -1.0813903
1.9172376 -2.0408497 -1.0845586
1.9221674 -2.0100472 -1.0872912
1.9937854 -1.9580668 -1.0812407
1.9206587 -1.937923 -1.0864549
1.9964416 -1.9258202 -1.082653
1.9160254 -1.8988057 -1.0838866
1.8483683 -1.882772 -1.089656
1.9261247 -1.8750223 -1.0894848
1.9993708 -1.8603476 -1.0842105
1.8472546 -1.8481708 -1.089013
1.9180505 -1.8336504 -1.0850092
2.0003088 -1.8277931 -1.0847093
1.9249029 -1.8073709 -1.0888076
1.9132793 -1.7639239 -1.0823644
1.8482713 -1.7518351 -1.0896
1.9921587 -1.754977 -1.0803758
1.9167742 -1.7353256 -1.0843017
1.9165566 -1.703683 -1.0841811
1.9984963 -1.6970637 -1.0837455
1.9263413 -1.681416 -1.0896049
2.0040457 -1.6706257 -1.0866963
2.0810635 -1.6568408 -1.0807843
1.919279 -1.6444763 -1.0856901
1.9930159 -1.6305298 -1.0808315
1.9222785 -1.6168371 -1.0873529
1.9172693 -1.5827239 -1.0845761
2.0011985 -1.5769444 -1.0851823
1.9217933 -1.5570669 -1.0870838
2.0039763 -1.5201501 -1.0866593
1.9186437 -1.4966798 -1.085338
2.002743 -1.4902192 -1.0860037
1.9923669 -1.4538089 -1.0804865
1.9207703 -1.4419441 -1.0865167
2.0817232 -1.4198323 -1.0811205
1.9196162 -1.3859625 -1.0858771
1.9237828 -1.3619195 -1.0881866
1.9927585 -1.3433211 -1.0806947
1.9203119 -1.3326031 -1.0862627
1.9135582 -1.3013735 -1.0825191
1.9207196 -1.2801697 -1.0864887
1.9917048 -1.2890028 -1.0801344
1.8445432 -1.2662302 -1.0874475
1.9934558 -1.2637674 -1.0810654
1.9254426 -1.2574027 -1.0891067
1.9918962 -1.2366292 -1.0802362
1.8475733 -1.2176939 -1.0891969
1.9221064 -1.2040117 -1.0872574
2.08164 -1.2021264 -1.0810782
1.9965179 -1.1879969 -1.0826936
1.9169888 -1.175575 -1.0844207
1.9957669 -1.1621145 -1.0822943
1.9932035 -1.1354176 -1.0809313
1.9143914 -1.1244621 -1.0829809
1.9255286 -1.1067022 -1.0891544
2.084564 -1.1009848 -1.0825679
1.9952049 -1.0869169 -1.0819955
1.8451537 -1.0701489 -1.0878
1.9193959 -1.0788207 -1.085755
1.9919059 -1.0605789 -1.0802414
1.9184644 -1.0542729 -1.0852386
2.0834174 -1.0502598 -1.0819838
1.9965545 -1.0146998 -1.0827131
2.0078168 -0.99658579 -1.0887014
1.9254067 -0.98718184 -1.0890868
1.8470668 -0.97832656 -1.0889045
2.0836215 -0.97671479 -1.0820878
1.9164551 -0.95922345 -1.0841248
1.8471882 -0.93306988 -1.0889747
1.9160136 -0.93599659 -1.0838802
1.9201767 -0.91524738 -1.0861877
1.9961326 -0.91990304 -1.0824888
1.9241692 -0.89448953 -1.0884008
1.9215269 -0.87066334 -1.0869361
1.8422844 -0.86400855 -1.0861434
1.9179555 -0.094765753 -1.0849565
2.0838776 -0.082475513 -1.0822182
1.9180328 -0.07557188 -1.0849993
2.0006626 -0.079017647 -1.0848974
1.9170892 -0.056343049 -1.0844764
1.991798 -0.058759931 -1.080184
1.8469725 -0.035504386 -1.08885
1.994246 -0.039140221 -1.0814856
1.9182581 -0.018074337 -1.0851243
2.0837469 -0.00072588486 -1.0821517
1.9203725 0.0010324005 -1.0862962
1.9925091 0.00034256087 -1.0805621
2.0077462 0.0198885 -1.0886638
1.9197901 0.039357886 -1.0859735
1.9954616 0.039732642 -1.082132
2.0831733 0.040095292 -1.0818594
1.9162188 0.058477726 -1.0839939
1.9945027 0.059445884 -1.0816221
1.9159999 0.077596106 -1.0838726
1.9938952 0.098866366 -1.0812991
1.9977756 0.1187451 -1.0833623
1.9232057 0.13536416 -1.0878668
2.008558 0.13905399 -1.0890955
2.0006626 0.15848292 -1.0848974
1.9179555 0.17348152 -1.0849565
1.9996713 0.17825179 -1.0843704
1.9220937 0.1930314 -1.0872504
1.997647 0.19794032 -1.0832939
1.9234635 0.21243866 -1.0880096
1.9919509 0.21728557 -1.0802653
1.9255543 0.23197208 -1.0891685
1.9940253 0.2373147 -1.0813683
1.9248813 0.25127286 -1.0887957
1.9941849 0.25720665 -1.0814531
1.9950676 0.27722132 -1.0819225
2.0823948 0.28573719 -1.0814627
2.0001798 0.29783598 -1.0846407
1.9915211 0.33667973 -1.0800368
1.9210274 0.34804383 -1.0866593
1.9944032 0.35718647 -1.0815692
1.9246615 0.38789386 -1.0886737
2.0832031 0.38951674 -1.0818746
1.9807038 -2.8837743 -1.0742851
1.9873899 -2.8412347 -1.0778402
1.9831293 -2.7839177 -1.0755748
2.0601356 -2.76476 -1.0701212
1.9831395 -2.7339013 -1.0755802
1.9903945 -2.6949048 -1.0794377
2.0629318 -2.670752 -1.0715457
1.9881198 -2.6437211 -1.0782284
2.0623026 -2.6225202 -1.0712253
1.98693 -2.5950739 -1.0775957
2.0675766 -2.5827477 -1.0739125
1.9834059 -2.5443931 -1.0757219
2.0670245 -2.5363879 -1.0736312
1.9868596 -2.503721 -1.0775582
2.0654533 -2.445776 -1.0728306
2.0650768 -2.4022403 -1.0726388
2.0666578 -2.3617804 -1.0734444
2.0660455 -2.2385607 -1.0731324
1.987893 -2.2116954 -1.0781076
2.0683019 -2.2015672 -1.0742821
1.9862717 -2.1709352 -1.0772457
2.0656173 -2.1598859 -1.0729142
1.9899328 -2.0989852 -1.0791923
2.0666668 -2.0853114 -1.0734489
2.0678847 -2.0495994 -1.0740694
1.9900374 -2.0255466 -1.0792478
2.0647018 -2.0100513 -1.0724478
1.9861901 -1.9857256 -1.0772022
2.0617352 -1.9713817 -1.0709362
2.0759416 -1.9498135 -1.0781747
2.1575768 -1.9383936 -1.0720472
2.0749538 -1.9139791 -1.0776713
1.9826401 -1.8780875 -1.0753146
2.0728805 -1.8776807 -1.076615
2.0717869 -1.8428314 -1.0760577
2.0619426 -1.8006805 -1.0710418
1.9912919 -1.7865551 -1.0799149
2.0670493 -1.7724121 -1.0736438
1.9864297 -1.7179809 -1.0773296
2.0607629 -1.7027609 -1.0704408
2.1566963 -1.7029253 -1.0716177
2.0642085 -1.674184 -1.0721964
2.0651631 -1.613166 -1.0726827
2.1540129 -1.6066636 -1.070309
1.9900944 -1.5978371 -1.0792782
2.0692625 -1.5560375 -1.0747715
2.1555378 -1.5469249 -1.0710528
1.9904345 -1.5387498 -1.0794591
2.0609112 -1.5200529 -1.0705163
2.0751927 -1.5014647 -1.077793
2.0661767 -1.4658316 -1.0731992
2.0740497 -1.4428517 -1.0772107
1.9867674 -1.4215339 -1.0775092
1.9912488 -1.3970065 -1.079892
2.0747623 -1.3868482 -1.0775738
1.9910114 -1.3693227 -1.0797657
2.060575 -1.3494774 -1.0703449
2.0651593 -1.3251829 -1.0726808
1.9874455 -1.3127573 -1.0778698
2.065665 -1.2984047 -1.0729384
2.1539221 -1.2879326 -1.0702647
2.0612593 -1.2687665 -1.0706936
2.0690198 -1.2470742 -1.0746479
2.0664208 -1.2191267 -1.0733236
1.9877543 -1.2081673 -1.0780339
2.1630454 -1.1857826 -1.0747144
2.0651386 -1.1664538 -1.0726702
2.1548848 -1.1549182 -1.0707343
2.0649147 -1.1407341 -1.0725563
2.0748148 -1.1209114 -1.0776006
1.9840879 -1.1052314 -1.0760845
2.0611887 -1.0633047 -1.0706576
1.9875572 -1.033962 -1.0779291
2.0691142 -1.0182018 -1.0746959
2.0650544 -0.99179554 -1.0726273
1.9874939 -0.96246642 -1.0778954
1.9862334 -0.93839884 -1.0772252
1.9794015 -0.097382382 -1.0735927
2.0705087 -0.061363399 -1.0754064
2.0783424 -0.041360136 -1.0793979
2.1656723 -0.043696955 -1.0759957
2.0646455 -0.020582875 -1.0724189
2.1626561 -0.022562183 -1.0745245
1.9894818 -0.019270198 -1.0789524
2.1594732 -0.0014924026 -1.0729722
2.0724022 0.019797372 -1.0763713
2.1588211 0.019484594 -1.0726541
2.0750751 0.060419396 -1.0777332
1.9880952 0.079035461 -1.0782152
2.0766199 0.080776855 -1.0785203
2.1666625 0.082523488 -1.0764786
2.0771153 0.10113994 -1.0787727
2.1581635 0.10332276 -1.0723333
2.0712187 0.12127152 -1.0757682
2.0758495 0.14181571 -1.0781277
2.0767593 0.16224742 -1.0785912
2.0783982 0.18276572 -1.0794264
2.1575677 0.18726747 -1.0720428
2.0772097 0.20311616 -1.0788208
2.1572306 0.2082798 -1.0718784
2.0770214 0.24403973 -1.0787247
2.1542695 0.25014246 -1.0704341
2.0744696 0.2642785 -1.0774246
2.1534374 0.27114648 -1.0700283
2.1542277 0.29235935 -1.0704137
2.0644708 0.3040852 -1.0723299
2.1646719 0.31485033 -1.0755078
2.0764892 0.3262445 -1.0784537
2.0786021 0.3472234 -1.0795302
2.1582556 0.35658017 -1.0723783
2.0787818 0.36798713 -1.0796219
1.991008 0.3767381 -1.079764
2.156584 0.37766218 -1.071563
1.9839754 0.39562106 -1.0760247
2.153857 0.39858794 -1.070233
2.0672064 0.40755984 -1.0737238
1.9881243 0.41653633 -1.0782306
2.0527055 -2.9086411 -1.0663353
2.1363823 -2.8948345 -1.06171
2.0561416 -2.8610332 -1.0680861
2.1364553 -2.8431153 -1.0617455
2.0517058 -2.8034818 -1.0658259
2.1381924 -2.7946846 -1.0625927
2.1329131 -2.7380776 -1.0600179
2.0566661 -2.7107704 -1.0683533
2.1398833 -2.6983953 -1.0634174
2.1392477 -2.6498032 -1.0631076
2.1452315 -2.6103518 -1.0660261
2.1392236 -2.5569823 -1.0630958
2.1417384 -2.514904 -1.0643222
2.0562792 -2.4784441 -1.0681561
2.144376 -2.473702 -1.0656089
2.1421614 -2.4276092 -1.0645286
2.1494682 -2.3931649 -1.0680923
2.1455944 -2.3467467 -1.066203
2.0527799 -2.304359 -1.0663731
2.1392348 -2.2984884 -1.0631012
2.0595901 -2.2714369 -1.0698432
2.141335 -2.2602627 -1.0641255
2.1455457 -2.1855969 -1.0661793
2.2360795 -2.1807296 -1.0617188
2.1357548 -2.1369815 -1.0614039
2.0546238 -2.1102457 -1.0673127
2.141397 -2.1047871 -1.0641558
2.1460242 -2.0719869 -1.0664127
2.1496229 -2.0386052 -1.0681678
2.2334731 -2.0270638 -1.0605035
2.1419272 -1.9949245 -1.0644144
2.2336581 -1.99085 -1.0605897
2.1440394 -1.961195 -1.0654446
2.1513619 -1.897861 -1.0690161
2.238241 -1.8886993 -1.0627267
2.1524148 -1.864449 -1.0695295
2.2347214 -1.8512467 -1.0610855
2.1460259 -1.8250085 -1.0664134
2.2416382 -1.8230371 -1.0643109
2.14061 -1.7870561 -1.063772
2.2358947 -1.7847273 -1.0616326
2.1527088 -1.7643976 -1.0696729
2.2341163 -1.7501978 -1.0608034
2.0563226 -1.7307917 -1.0681783
2.1458302 -1.7261779 -1.066318
2.2378664 -1.7204882 -1.0625521
2.2405748 -1.6902698 -1.063815
2.146873 -1.6633368 -1.0668266
2.2340138 -1.6533371 -1.0607555
2.1491108 -1.6338239 -1.0679181
2.2330513 -1.6211374 -1.0603068
2.0589628 -1.5779639 -1.0695236
2.1422603 -1.5672339 -1.0645769
2.2339151 -1.5599102 -1.0607096
2.2350245 -1.5302802 -1.0612268
2.1415234 -1.5068738 -1.0642174
2.23353 -1.4991615 -1.0605299
2.1459978 -1.4806495 -1.0663997
2.2425332 -1.4755069 -1.0647283
2.149462 -1.4539266 -1.0680894
2.2396798 -1.4440708 -1.0633976
2.1526713 -1.4272528 -1.0696546
2.248697 -1.3917161 -1.0676025
2.1505842 -1.3689883 -1.0686367
2.1483245 -1.3395543 -1.0675346
2.236928 -1.3273489 -1.0621145
2.1488972 -1.3122418 -1.0678139
2.2365124 -1.299078 -1.0619208
2.1460919 -1.2559947 -1.0664457
2.2453063 -1.24888 -1.0660213
2.1498301 -1.2313528 -1.0682689
2.1445758 -1.201658 -1.0657063
2.3400805 -1.180681 -1.0601741
2.2376623 -1.1634216 -1.062457
2.2331948 -1.1345115 -1.0603737
2.1512532 -1.1269367 -1.0689631
2.2341912 -1.1087378 -1.0608382
2.1392355 -1.094812 -1.0631015
2.1415415 -1.0706177 -1.0642263
2.1370885 -1.0431477 -1.0620544
2.1487906 -1.0239841 -1.0677619
2.2454679 -0.089061655 -1.0660968
2.1496651 -0.063979082 -1.0681884
2.2337332 -0.066825181 -1.0606247
2.236311 -0.04538301 -1.0618267
2.3409035 -0.04837276 -1.0605406
2.2373333 -0.0023061428 -1.0623034
2.2412138 0.019203128 -1.064113
2.1526117 0.040445734 -1.0696256
2.2440181 0.040783849 -1.0654206
2.150732 0.061328329 -1.0687089
2.2405312 0.10551944 -1.0637946
2.1477075 0.12389043 -1.0672337
2.2471797 0.12736949 -1.066895
2.3409035 0.13059185 -1.0605406
2.340101 0.15294965 -1.0601833
2.1514568 0.16589503 -1.0690624
2.2436581 0.17052469 -1.0652528
2.2416418 0.19206212 -1.0643125
2.2412641 0.21371016 -1.0641365
2.1468718 0.22843371 -1.0668261
2.234576 0.25649431 -1.0610178
2.2472191 0.27953562 -1.0669132
2.2458019 0.32311267 -1.0662525
2.151732 0.33439457 -1.0691966
2.2398853 0.34423852 -1.0634935
2.2508991 0.38982996 -1.0686293
2.2417781 0.41045517 -1.0643762
2.2229171 -2.9346006 -1.0555811
2.2154887 -2.8724833 -1.0521171
2.217844 -2.8244257 -1.0532155
2.2142584 -2.7697546 -1.0515435
2.2195268 -2.4513133 -1.0540003
2.228225 -2.3752503 -1.0580562
2.2322538 -2.3377264 -1.0599349
2.3183932 -2.3254247 -1.0505183
2.2246838 -2.2886081 -1.0564048
2.3223534 -2.2883255 -1.0522815
2.3279364 -2.2533393 -1.0547671
2.2218113 -2.2452745 -1.0550655
2.3208237 -2.2064977 -1.0516005
2.2175887 -2.1239958 -1.0530964
2.2291534 -2.0973125 -1.0584891
2.3268898 -2.0961592 -1.0543011
2.3233969 -2.0554042 -1.0527462
2.2177229 -2.04914 -1.0531589
2.3215632 -2.0167682 -1.0519297
2.3257263 -1.9839306 -1.0537832
2.3288236 -1.9505552 -1.0551622
2.2214677 -1.9440926 -1.0549052
2.229279 -1.9157796 -1.0585477
2.3273435 -1.8098261 -1.0545032
2.3278797 -1.7764908 -1.054742
2.330308 -1.7450075 -1.0558231
2.3181348 -1.6384346 -1.0504032
2.3237746 -1.6107806 -1.0529141
2.2264609 -1.5852226 -1.0572336
2.319134 -1.5761622 -1.0508481
2.3311641 -1.5534176 -1.0562043
2.3227561 -1.5169812 -1.0524608
2.3259909 -1.4586663 -1.0539011
2.3323207 -1.4328904 -1.0567192
2.2294729 -1.4082382 -1.0586381
2.3384171 -1.4071082 -1.0594335
2.3179131 -1.3653232 -1.0503045
2.3194029 -1.3374021 -1.0509678
2.3222382 -1.3104991 -1.0522301
2.3223906 -1.282262 -1.0522981
2.2294192 -1.2671639 -1.0586131
2.3198285 -1.2527634 -1.0511574
2.3292377 -1.230108 -1.0553465
2.2295797 -1.2126839 -1.0586879
2.3187559 -1.1968505 -1.0506798
2.2248089 -1.1831368 -1.0564632
2.3224092 -1.1443347 -1.0523064
2.3309398 -1.1216903 -1.0561044
2.2300022 -1.0805466 -1.058885
2.3346252 -0.07046885 -1.0577452
2.2278473 -0.023585269 -1.05788
2.32235 -0.025458433 -1.0522799
2.3337531 -0.0034813541 -1.0573571
2.3312793 0.018839426 -1.0562556
2.3268001 0.041109547 -1.0542613
2.2294323 0.062251128 -1.0586191
2.3184903 0.063257493 -1.0505614
2.4364836 0.064521857 -1.0518088
2.3250897 0.10775606 -1.0534998
2.2283006 0.14813116 -1.0580914
2.3226993 0.17435689 -1.0524354
2.3242841 0.19672227 -1.0531411
2.3266003 0.21919782 -1.0541723
2.3296456 0.24180792 -1.0555282
2.3270466 0.26396677 -1.0543711
2.3333657 0.28704974 -1.0571845
2.3381658 0.33272102 -1.0593216
2.3248711 0.35358253 -1.0534024
2.2320087 0.36501092 -1.0598205
2.3072522 -2.397836 -1.045558
2.3153427 -2.3640013 -1.0491601
2.4133935 -2.3192701 -1.0420077
2.4136503 -2.27841 -1.0421166
2.4148531 -2.199173 -1.0426272
2.4200666 -2.1646242 -1.0448402
2.311075 -2.1580002 -1.04726
2.3153198 -2.1235008 -1.04915
2.4150777 -2.0831628 -1.0427226
2.4205258 -2.0502264 -1.0450351
2.418376 -2.0111928 -1.0441227
2.4201665 -1.9760126 -1.0448825
2.4179013 -1.9379469 -1.0439211
2.3141725 -1.9026657 -1.0486392
2.4240119 -1.8718183 -1.0465149
2.310611 -1.8648387 -1.0470535
2.3154366 -1.8343668 -1.0492018
2.4205532 -1.8342478 -1.0450468
2.4264796 -1.8043462 -1.0475624
2.4252832 -1.7693781 -1.0470545
2.4153163 -1.7284228 -1.0428238
2.3135903 -1.6994568 -1.0483799
2.4140892 -1.6944191 -1.042303
2.3160176 -1.6689024 -1.0494606
2.4240811 -1.668744 -1.0465443
2.4199603 -1.6013269 -1.0447952
2.4110882 -1.5636929 -1.0410291
2.4191558 -1.537684 -1.0444536
2.4135063 -1.5030165 -1.0420555
2.3147292 -1.481343 -1.048887
2.4250233 -1.4795773 -1.0469443
2.4139152 -1.4422494 -1.0422291
2.4184954 -1.4149454 -1.0441732
2.5337365 -1.4112912 -1.0405533
2.4203947 -1.3862363 -1.0449795
2.4155154 -1.3538467 -1.0429083
2.412751 -1.3230444 -1.0417349
2.4318213 -1.3046591 -1.0498298
2.4293609 -1.2744145 -1.0487853
2.4191546 -1.2403746 -1.0444531
2.4185581 -1.2117951 -1.0441999
2.416019 -1.1824797 -1.0431221
2.3108394 -0.091457434 -1.0471551
2.4259806 -0.073645227 -1.0473505
2.420373 -0.050397858 -1.0449703
2.4302204 -0.027710604 -1.0491502
2.4196386 -0.0044596572 -1.0446585
2.4189947 0.018489383 -1.0443852
2.4227688 0.041422717 -1.0459872
2.315485 0.0853514 -1.0492235
2.5190351 -2.4478266 -1.0346136
2.5149665 -2.4006035 -1.0329697
2.4006834 -2.3905835 -1.0366125
2.5172713 -2.3602743 -1.0339009
2.4085906 -2.3562469 -1.039969
2.5212154 -2.3220572 -1.0354944
2.513454 -2.2735591 -1.0323585
2.5221477 -2.2408156 -1.0358711
2.4078782 -2.2324779 -1.0396665
2.5222609 -2.1221375 -1.0359168
2.4043119 -2.111702 -1.0381528
2.509717 -2.0730739 -1.0308487
2.5179055 -2.0420671 -1.0341572
2.5206006 -2.006855 -1.035246
2.5266454 -1.9747261 -1.0376883
2.5136104 -1.9279451 -1.0324217
2.402631 -1.8899668 -1.0374393
2.5124412 -1.8556676 -1.0319494
2.5200562 -1.8262845 -1.0350261
2.5173953 -1.7896335 -1.0339509
2.5205195 -1.7575912 -1.0352132
2.5194299 -1.7229072 -1.034773
2.5148444 -1.6862323 -1.0329204
2.519294 -1.6561381 -1.0347182
2.4082251 -1.6252806 -1.0398138
2.5226583 -1.6255696 -1.0360775
2.5233366 -1.5935225 -1.0363514
2.5268848 -1.5636206 -1.0377851
2.5108709 -1.5217768 -1.031315
2.5113211 -1.4906988 -1.0314969
2.5147042 -1.4616714 -1.0328637
2.5169945 -1.4322201 -1.033789
2.5314155 -1.379539 -1.0396155
2.5205131 -1.3434018 -1.0352107
2.5283051 -1.3178414 -1.0383589
2.5267091 -1.2874181 -1.037714
2.525651 -1.2575592 -1.0372865
2.524303 -1.2278219 -1.036742
2.4001443 -0.095226467 -1.0363837
2.5218441 0.017987097 -1.0357485
2.5321391 0.041723274 -1.0399079
2.6176341 -2.5272584 -1.0209422
2.6315281 -2.4960012 -1.0262756
2.5001523 -2.4728048 -1.0269845
2.6346247 -2.4547412 -1.0274643
2.6232219 -2.3157339 -1.0230871
2.6199989 -2.2714055 -1.0218499
2.5068941 -2.1870947 -1.0297083
2.6193001 -2.1897039 -1.0215816
2.6219327 -2.1522064 -1.0225923
2.5060978 -2.147053 -1.0293865
2.6263773 -2.116657 -1.0242983
2.616277 -2.0697579 -1.0204213
2.627378 -2.0404634 -1.0246825
2.6359358 -2.0093594 -1.0279675
2.6191058 -1.9590913 -1.0215071
2.616955 -1.9207674 -1.0206815
2.6320765 -1.8956646 -1.0264862
2.5060513 -1.8862104 -1.0293678
2.632283 -1.8598039 -1.0265653
2.6336637 -1.8251916 -1.0270953
2.6190226 -1.7798065 -1.0214752
2.6235294 -1.7482712 -1.0232052
2.6340561 -1.7210302 -1.0272459
2.617275 -1.6759642 -1.0208043
2.6383734 -1.6560694 -1.0289032
2.6203625 -1.5784888 -1.0219895
2.6253395 -1.5490093 -1.0238999
2.6275866 -1.5181062 -1.0247625
2.6270695 -1.4858512 -1.024564
2.6344712 -1.45842 -1.0274053
2.6374855 -1.4286582 -1.0285624
2.6352255 -1.3962308 -1.0276948
2.6376522 -1.3666354 -1.0286263
2.617981 -1.3257068 -1.0210754
2.6205978 -1.2968783 -1.0220798
2.6297138 -1.2714864 -1.0255791
2.6318192 -1.2427086 -1.0263873
2.6191583 -1.2070771 -1.0215272
2.6360838 -1.1857373 -1.0280243
2.6236422 -1.1508909 -1.0232484
2.6367109 -1.1278521 -1.028265
2.6158454 -1.09005 -1.0202556
2.7624292 -0.91288537 -1.0208329
2.741431 -2.6782053 -1.0131902
2.7338445 -2.6235929 -1.0104289
2.6150377 -2.5700426 -1.0199455
2.7353497 -2.5786984 -1.0109768
2.7505329 -2.4138052 -1.016503
2.6041355 -2.3827832 -1.0157605
2.7386646 -2.3601813 -1.0121833
2.6124325 -2.3479578 -1.0189455
2.7348921 -2.3145187 -1.0108103
2.7327878 -2.2709782 -1.0100443
2.7331407 -2.2301204 -1.0101728
2.6140783 -2.2254303 -1.0195771
2.7427788 -2.1175153 -1.0136808
2.7436602 -2.0790308 -1.0140016
2.7380006 -2.0360496 -1.0119417
2.7464721 -2.0042346 -1.015025
2.753082 -1.9712881 -1.0174308
2.7336531 -1.9199218 -1.0103593
2.7386692 -1.8867335 -1.012185
2.7465024 -1.8557808 -1.015036
2.7484896 -1.8210689 -1.0157592
2.7517114 -1.7875251 -1.016932
2.7473822 -1.7493614 -1.0153562
2.7466657 -1.7139937 -1.0150955
2.7480083 -1.680299 -1.0155841
2.7555189 -1.6507138 -1.0183178
2.6151047 -1.6079961 -1.0199713
2.7439432 -1.6097949 -1.0141046
2.7401268 -1.5740691 -1.0127156
2.7466705 -1.5447439 -1.0150973
2.7438157 -1.5102563 -1.0140581
2.7497745 -1.4810225 -1.0162269
2.7504394 -1.4490727 -1.016469
2.7549956 -1.4194579 -1.0181273
2.755053 -1.3876805 -1.0181482
2.732748 -1.3448205 -1.0100298
2.7482769 -1.3215029 -1.0156819
2.7439642 -1.2884645 -1.0141122
2.7427537 -1.2572374 -1.0136716
2.7507205 -1.2305208 -1.0165713
2.7385633 -1.1947685 -1.0121465
2.7529442 -1.171203 -1.0173806
2.7575626 -1.1433437 -1.0190617
2.7392023 -1.1059622 -1.0123789
2.7414958 -1.0776137 -1.0132138
2.7452936 -1.0500107 -1.0145961
2.7514973 -1.0234486 -1.0168539
2.7521598 -0.99485177 -1.0170951
2.7410128 -0.96209162 -1.0130379
2.7553825 -0.93881983 -1.0182681
2.8637254 -2.7327762 -1.0007102
2.8687222 -2.5487494 -1.0024308
2.8643522 -2.4546947 -1.0009261
2.724571 -2.4340591 -1.0070536
2.8657432 -2.4118013 -1.0014051
2.8722489 -2.2883992 -1.0036452
2.8694739 -2.2443488 -1.0026896
2.8730328 -2.2058818 -1.0039151
2.7322879 -2.1888244 -1.0098623
2.873117 -2.1651731 -1.003944
2.8652163 -2.0401275 -1.0012237
2.8660321 -1.9637426 -1.0015047
2.8745475 -1.9317682 -1.0044366
2.8699946 -1.8911929 -1.002869
2.8657947 -1.8513831 -1.0014229
2.8708324 -1.8180691 -1.0031574
2.8658135 -1.7786263 -1.0014293
2.865252 -1.7424641 -1.001236
2.8774147 -1.7144517 -1.0054239
2.8671141 -1.6730553 -1.0018772
2.87041 -1.6402259 -1.0030119
2.8800309 -1.611284 -1.0063248
2.8726959 -1.5729033 -1.0037991
2.8708196 -1.5380172 -1.003153
2.8652174 -1.5014733 -1.001224
2.866848 -1.4691699 -1.0017855
2.8775125 -1.4417763 -1.0054575
2.8794093 -1.4099962 -1.0061107
2.8630061 -1.3694193 -1.0004627
2.869385 -1.3404536 -1.0026591
2.8789594 -1.3131049 -1.0059558
2.8648896 -1.2749186 -1.0011111
2.8704698 -1.2149494 -1.0030326
2.8745995 -1.1857867 -1.0044546
2.8643916 -1.1507797 -1.0009396
2.869715 -1.1225058 -1.0027727
2.8792186 -1.0959759 -1.0060451
2.8751757 -1.0642289 -1.004653
2.8859808 -1.0383183 -1.0083735
2.8661814 -1.0012232 -1.0015559
2.8710976 -0.97346115 -1.0032488
2.8640845 -0.94167078 -1.000834
2.8856227 -0.91971022 -1.0082501
2.8699431 -0.88543946 -1.0028512
2.8566217 -2.7747869 -0.99826431
2.8545027 -2.4906776 -0.99753469
3.009762 -2.4296987 -0.99183673
3.0052686 -2.3818994 -0.99037671
2.8540666 -2.3584907 -0.99738449
3.0070486 -2.3397882 -0.99095511
2.8596125 -2.3203604 -0.9992941
3.0068309 -2.2966406 -0.99088436
3.0045886 -2.2525039 -0.99015576
2.858124 -2.1136017 -0.99878156
2.8564425 -2.0728016 -0.99820262
3.0081241 -2.0506995 -0.99130458
3.0062416 -2.0099471 -0.99069285
2.854856 -1.9940321 -0.99765635
3.0084724 -1.8956722 -0.99141771
3.014786 -1.8244361 -0.99346912
3.0054591 -1.7817024 -0.99043858
3.0070031 -1.7097893 -0.99094033
3.0087636 -1.6393191 -0.9915123
3.0082684 -1.603798 -0.99135143
3.0065665 -1.5679607 -0.99079847
3.0052919 -1.4644217 -0.99038434
3.013377 -1.4346759 -0.9930113
3.0099466 -1.3995055 -0.99189675
3.0070322 -1.364918 -0.99094975
3.0090072 -1.3328868 -0.99159145
3.0106797 -1.3009268 -0.99213493
3.0129306 -1.269424 -0.99286628
2.8582439 -1.2406126 -0.99882287
3.0117152 -1.1727865 -0.99247134
3.0074358 -1.1395025 -0.99108094
3.0117717 -1.1098104 -0.99248964
3.0248091 -1.0834668 -0.9967258
3.0043662 -1.0449257 -0.99008352
3.0096714 -1.0160481 -0.99180734
3.0201538 -0.98901021 -0.99521321
3.0104616 -0.95524502 -0.992064
3.0077159 -0.92407566 -0.99117196
2.9950759 -2.8938875 -0.98706496
3.0011036 -2.8487287 -0.98902345
3.0005114 -2.6517625 -0.98883104
3.0001752 -2.6042018 -0.98872185
2.9978123 -2.555582 -0.98795402
3.0015244 -2.5128725 -0.98916018
2.9980588 -2.4646914 -0.98803413
3.0033927 -2.2097492 -0.98976725
2.9954853 -2.1626039 -0.98719794
3.0032501 -2.0871682 -0.98972088
3.0023086 -1.9683149 -0.98941499
2.9979153 -1.9269123 -0.98798752
3.0016198 -1.8535726 -0.98919117
2.9915154 -1.7368213 -0.98590809
3.0030463 -1.6716338 -0.98965466
2.9959886 -1.5278188 -0.98736149
2.9969425 -1.4941317 -0.98767143
3.1654983 -1.3620354 -0.98094666
2.9981346 -1.2308649 -0.98805875
3.0015118 -1.2003746 -0.98915607
3.1712742 -1.1639553 -0.98271257
3.1650596 -1.0323454 -0.98081255
3.1652212 -0.93738723 -0.98086196
3.1515975 -2.7716742 -0.97669679
3.1339426 -2.7068117 -0.97129917
3.152344 -2.6742923 -0.97692502
3.1466599 -2.6215088 -0.97518718
3.1478202 -2.5752628 -0.97554201
3.1409152 -2.5230434 -0.97343081
3.1576579 -2.4906316 -0.9785496
3.1519506 -2.4406569 -0.97680467
3.1571827 -2.3999033 -0.9784044
3.1542397 -2.3533669 -0.97750455
3.15154 -2.3076518 -0.97667921
3.1569369 -2.2684793 -0.97832918
3.15798 -2.2265561 -0.97864807
3.142709 -2.1736069 -0.97397929
3.1467338 -2.1349096 -0.97520977
3.1446965 -2.0518975 -0.9745869
3.1563826 -2.019412 -0.97815973
3.1408587 -1.9696307 -0.97341353
3.1534364 -1.9383177 -0.97725898
3.1443079 -1.8937327 -0.97446811
3.1562102 -1.8624663 -0.97810698
3.1503513 -1.8207895 -0.9763158
3.1457117 -1.7803352 -0.97489727
3.1515636 -1.7463117 -0.97668642
3.1570883 -1.7123204 -0.97837543
3.1588929 -1.6765181 -0.9789272
3.1424479 -1.6312833 -0.97389948
3.1494544 -1.5989742 -0.97604156
3.1604588 -1.568857 -0.97940594
3.1539378 -1.5300539 -0.97741222
3.1461444 -1.4910706 -0.97502965
3.1518655 -1.4589852 -0.97677869
3.1555438 -1.4260991 -0.97790331
3.1483901 -1.3884754 -0.97571617
3.150598 -1.3216155 -0.9763912
3.1583197 -1.291315 -0.97875196
3.1479807 -1.2536477 -0.975591
3.1524322 -1.2223635 -0.97695196
3.1601851 -1.192498 -0.97932231
3.1604927 -1.1272931 -0.97941631
3.1475337 -1.090269 -0.97545439
3.1523373 -1.0599173 -0.97692293
3.1574965 -0.99800974 -0.97850025
3.1596622 -0.96711051 -0.97916245
3.157706 -0.072274223 -0.97856432
3.1575923 -0.043428745 -0.97852951
3.1572375 -0.014594133 -0.97842109
3.1604669 0.014192513 -0.97940844
3.1519804 0.043033715 -0.97681385
3.3141234 -2.9013407 -0.96271324
3.3114524 -2.8473592 -0.96194738
3.3115859 -2.6970527 -0.96198571
3.3086925 -2.6459525 -0.96115601
3.3126156 -2.553575 -0.96228093
3.3152373 -2.4624717 -0.96303266
3.3220439 -2.4218273 -0.96498442
3.3103116 -2.3680584 -0.96162021
3.3199773 -2.2863407 -0.96439183
3.3161469 -2.2401066 -0.96329349
3.3101828 -2.1930311 -0.96158332
3.3207088 -2.1575224 -0.96460164
3.3154027 -2.1119249 -0.96308011
3.319422 -2.0728626 -0.96423262
3.3154891 -1.9884192 -0.96310484
3.3065987 -1.9427432 -0.96055561
3.3147659 -1.9077253 -0.96289754
3.3158724 -1.8688323 -0.96321476
3.3140454 -1.8286371 -0.96269095
3.318588 -1.7923771 -0.96399349
3.3168068 -1.7529454 -0.96348274
3.3248959 -1.7191343 -0.96580225
3.3150768 -1.6387733 -0.96298671
3.3134434 -1.6008651 -0.96251827
3.3088138 -1.5618474 -0.96119076
3.3116555 -1.5267719 -0.96200562
3.321187 -1.4950212 -0.96473873
3.3242674 -1.460426 -0.96562201
3.3267853 -1.3902754 -0.966344
3.3119457 -1.3487813 -0.96208882
3.3234968 -1.3186618 -0.96540105
3.3195384 -1.2823462 -0.964266
3.3116238 -1.2448059 -0.9619965
3.3259156 -1.2160614 -0.96609461
3.3263855 -1.1821482 -0.96622938
3.3138158 -1.1437647 -0.96262503
3.3218238 -1.1130015 -0.96492136
3.320426 -1.079093 -0.96452051
3.323297 -1.0468018 -0.96534377
3.3222027 -1.0133746 -0.96502995
3.3254094 -0.98147058 -0.96594954
3.3366508 -0.95206976 -0.96917295
3.2932951 -2.7809305 -0.95674092
3.2996783 -2.7364514 -0.95857126
3.3036704 -2.5938976 -0.95971596
3.2979555 -2.4954469 -0.95807719
3.2995169 -2.3158252 -0.95852494
3.3024399 -2.0210159 -0.9593631
3.3008411 -1.6688042 -0.95890462
3.3031304 -1.4153426 -0.95956105
3.5024726 -1.3484344 -0.95013154
3.481586 -2.8753214 -0.94453502
3.485646 -2.8269484 -0.94562286
3.4929631 -2.7818041 -0.9475835
3.4882908 -2.7276154 -0.94633156
3.4783447 -2.6701171 -0.94366652
3.4723566 -2.616581 -0.94206196
3.4860501 -2.5786433 -0.94573122
3.4907196 -2.5342739 -0.94698238
