# .PCD v0.7 - Point Cloud Data file format
VERSION 0.7
FIELDS x y z
SIZE 4 4 4
TYPE F F F
COUNT 1 1 1
WIDTH 1459
HEIGHT 1
VIEWPOINT 0 0 0 1 0 0 0
POINTS 1459
DATA ascii
-0.037928537 0.46217966 0.093404174
0.24652202 0.46801579 0.099534906
0.25400186 0.46607912 0.096435972
0.2625038 0.46572369 0.093412198
-0.09341789 0.45994416 0.10611076
-0.085944541 0.45886585 0.10988916
-0.079011992 0.45863903 0.10602781
-0.053539678 0.45748824 0.1048172
-0.044057585 0.45632398 0.10369357
-0.038848326 0.4538632 0.10151726
0.16412109 0.45722291 0.10839096
-0.1326589 0.46894801 0.10713103
-0.12163097 0.46895364 0.10164335
-0.11431411 0.46801215 0.1039772
-0.10605112 0.46500102 0.10027876
-0.093900517 0.46612275 0.10517757
-0.085027188 0.46541333 0.10655485
-0.074284047 0.46598601 0.10571258
-0.064902723 0.46221614 0.10682779
-0.057687066 0.46408758 0.10105723
-0.047734499 0.46253866 0.10411413
0.17509837 0.46152842 0.10964665
0.19329964 0.46856245 0.10915492
0.20359504 0.4663009 0.10400387
0.23560344 0.46793097 0.10114355
-0.096476279 0.45819524 0.11630039
-0.070658937 0.45932108 0.11759302
-0.06443347 0.45897958 0.11528834
-0.053587694 0.4548865 0.11308163
-0.041959111 0.45706117 0.11312687
0.067234583 0.45639306 0.11130647
0.070779815 0.45445046 0.11206179
0.10331561 0.45527995 0.11933354
0.14391103 0.45817646 0.11377197
-0.12448503 0.46237093 0.11875465
-0.11636437 0.46239126 0.11347912
-0.10442259 0.46512765 0.11396831
-0.093163319 0.46790847 0.11508265
-0.084989868 0.46113583 0.11390488
-0.075671151 0.4665291 0.11471332
-0.067550108 0.4621464 0.11771536
-0.054213643 0.46555844 0.11326795
-0.047516908 0.46588939 0.11476594
0.117757 0.46945351 0.11970662
0.12305015 0.46252233 0.11780182
0.13052726 0.46304771 0.11720711
0.14990684 0.46078545 0.11324983
0.17026086 0.46286464 0.11165553
0.18715255 0.46737289 0.1110071
0.13874593 0.47328874 0.11874899
0.16585964 0.47419149 0.1182591
0.20627406 0.47485784 0.11014228
0.22179601 0.47610873 0.11172972
-0.081531785 0.45788702 0.12671919
-0.075424328 0.45794347 0.12464963
-0.06380336 0.45700002 0.12427258
-0.056219898 0.45280552 0.12690899
-0.047682114 0.45156077 0.12303052
-0.12166473 0.46541896 0.12824824
-0.11447102 0.46899432 0.1210923
-0.10287325 0.46501878 0.12646945
-0.094570354 0.46469903 0.12488726
-0.087125786 0.4691968 0.12413371
-0.074075148 0.46769914 0.12714368
-0.065244041 0.46673793 0.12795542
-0.054507487 0.46583301 0.12346315
-0.046489879 0.46527857 0.12429294
0.087551497 0.46407643 0.12679841
0.098611243 0.4672603 0.12650451
0.10962433 0.46216598 0.12091118
0.13514218 0.47473818 0.12250043
-0.091912046 0.45755932 0.1366396
-0.083401859 0.45565352 0.13609724
-0.077038281 0.45390669 0.13192126
-0.064618856 0.45525008 0.13529441
-0.055489339 0.45402628 0.13564759
-0.046635509 0.45762229 0.13057943
0.059585843 0.45494556 0.13774003
-0.14653952 0.46789789 0.13461252
-0.13651013 0.46656728 0.13358091
-0.12074926 0.46717513 0.13558598
-0.11558999 0.46540833 0.13609469
-0.10337408 0.46359795 0.13347083
-0.092416644 0.46599412 0.13411862
-0.08007925 0.4629609 0.13484856
-0.072088465 0.46476287 0.13670194
-0.067262769 0.46580991 0.13332628
-0.05378484 0.46477896 0.13290039
0.061993245 0.46044484 0.13737209
0.074615635 0.46556908 0.13288981
0.084594198 0.46482682 0.13127643
0.098958835 0.46969667 0.13484517
0.07551419 0.47261438 0.13744013
0.093916565 0.47388396 0.13223799
0.10624606 0.47380689 0.13383439
0.11223599 0.47238234 0.13535169
0.1287474 0.47516319 0.13478334
-0.10080979 0.45776513 0.14250779
-0.065349013 0.4550696 0.147201
-0.050740711 0.45197576 0.14590025
-0.049641054 0.45275277 0.14179628
-0.15558717 0.46626982 0.14502063
-0.1344234 0.4654569 0.14244729
-0.12617278 0.46701357 0.14333156
-0.1163867 0.46380967 0.14587212
-0.10607652 0.46104354 0.14131409
-0.094248965 0.46572673 0.14490986
-0.084219679 0.46239215 0.14805511
-0.07564263 0.46513313 0.14549388
-0.065650158 0.46401724 0.14474988
-0.054694813 0.46349725 0.14342889
-0.049553044 0.46269426 0.14146781
0.057126671 0.46667215 0.14525326
0.063380457 0.46739623 0.14410427
0.078133047 0.46835813 0.14401978
0.08111465 0.46793815 0.14358138
0.076041609 0.47356558 0.14544944
0.11541443 0.4746576 0.14363623
0.14453983 0.4731319 0.14536548
0.16309509 0.47366613 0.14494586
-0.09584412 0.45824456 0.15606384
-0.075860396 0.4535467 0.15570608
-0.065719411 0.4597829 0.159466
-0.056009427 0.45828471 0.15207131
0.035875615 0.45508143 0.15554635
0.047823604 0.45892566 0.15408808
-0.1471779 0.46799213 0.15291864
-0.13576664 0.46086055 0.15046099
-0.1230652 0.46413493 0.15519249
-0.11661611 0.46278852 0.15550926
-0.10336742 0.46594667 0.15464406
-0.095351264 0.46731734 0.15233642
-0.086985432 0.46354783 0.15437245
-0.073870361 0.46300751 0.15542129
-0.064589046 0.46633196 0.15601574
-0.056228988 0.46446034 0.15618217
0.035641212 0.46810779 0.15961087
0.046752565 0.46419668 0.15578015
0.054017168 0.46556371 0.15945613
0.067093968 0.46529841 0.15394884
0.076104015 0.4665592 0.15737176
0.09726309 0.46476242 0.15508148
0.11747802 0.4679862 0.15889066
0.12799287 0.46881482 0.15981267
0.074941918 0.47143751 0.15412748
0.11409444 0.47426257 0.15647241
0.22196826 0.47409385 0.15065344
-0.11198133 0.45622665 0.16266179
-0.10932016 0.45906821 0.16586867
-0.090111434 0.45311433 0.16128404
-0.075470731 0.45792535 0.16503316
-0.065351032 0.45434096 0.16440076
-0.057190537 0.45529294 0.16515408
0.039351601 0.45800868 0.16390932
0.040547695 0.45688048 0.16759051
0.05060026 0.45867011 0.16696331
-0.16739377 0.46678331 0.1650842
-0.12186505 0.4681823 0.16424498
-0.11612978 0.46866646 0.16217154
-0.10427542 0.46648961 0.16459271
-0.095073253 0.46368751 0.16305827
-0.083714768 0.46521348 0.1655266
-0.065655127 0.4640108 0.16332866
-0.058379121 0.46507221 0.16721115
0.038266301 0.46492201 0.16431434
0.042670704 0.46411392 0.16400042
0.056541655 0.46332255 0.16193965
0.065937914 0.46396551 0.16482404
0.072947204 0.46295998 0.16351828
0.086656436 0.46887892 0.16572431
0.091613583 0.46464741 0.16769961
0.1841663 0.4737021 0.16025499
-0.11402977 0.45931068 0.17472616
-0.10285448 0.45807689 0.17978828
-0.09471184 0.45624515 0.17161672
-0.086564749 0.45624995 0.17259514
-0.063601069 0.456366 0.17375788
-0.05851569 0.4553681 0.17491686
0.03949232 0.45496953 0.17220728
0.045229908 0.45526782 0.17390552
-0.15931824 0.46766567 0.17548384
-0.14415133 0.46628693 0.17263527
-0.13697672 0.46011955 0.17318548
-0.12561274 0.46529531 0.17580169
-0.11334411 0.46707726 0.17564666
-0.10290225 0.46521813 0.17665362
-0.095219716 0.46801767 0.17275743
-0.08447887 0.46411279 0.17261416
-0.074452437 0.46430564 0.17675194
-0.066897929 0.46222404 0.17577954
0.038063969 0.46482193 0.17308597
0.046765514 0.46608463 0.17682643
0.055332541 0.4646343 0.17858604
0.066859394 0.46617636 0.17544875
0.072671592 0.46436965 0.17640804
0.087736711 0.46710396 0.17284286
0.097431369 0.46832806 0.17600825
0.10753673 0.46934837 0.17864466
0.11314144 0.46794099 0.17474797
0.044386603 0.47287464 0.1740419
0.094449192 0.4739266 0.17731139
0.10503722 0.47102317 0.17255376
0.13403431 0.47299147 0.17477524
0.15382063 0.4728744 0.17600809
0.19063556 0.47189572 0.17664559
0.20085683 0.47154939 0.17843816
-0.11267203 0.45908886 0.18103603
-0.10488603 0.4576771 0.18414496
-0.07672818 0.45789024 0.18028648
0.039692309 0.455596 0.18168031
0.041019216 0.45716748 0.18630779
0.051543508 0.45732439 0.18800914
0.061040644 0.4587391 0.18522547
0.075978868 0.45641163 0.18921222
-0.13429126 0.46758026 0.18918931
-0.12629044 0.46642923 0.18407966
-0.100764 0.4652338 0.18521011
-0.094339035 0.46226436 0.18082611
-0.08490058 0.46824118 0.18620516
-0.073880374 0.46695992 0.18469688
-0.062671617 0.46262676 0.18267006
0.046671759 0.4653064 0.18642215
0.052523158 0.4627575 0.18461813
0.062356845 0.46242523 0.18587604
0.071517453 0.46796009 0.18707824
0.082191117 0.46927205 0.18763459
0.094719708 0.46598816 0.18354888
0.10522999 0.46899506 0.18412323
0.13167861 0.46994391 0.18544084
0.14672866 0.47412068 0.18431228
0.15759522 0.47178307 0.18344755
0.16402507 0.47305167 0.18364578
0.18376452 0.4747774 0.18617657
0.19172516 0.47101977 0.18357541
-0.13290134 0.45837784 0.1957995
-0.12969592 0.45836821 0.19461975
-0.093958542 0.45618001 0.19670615
-0.081922203 0.45940232 0.19537102
-0.075952426 0.45544457 0.19794753
0.042802881 0.45706394 0.19252816
0.064587027 0.45969218 0.19358023
0.071182832 0.45780063 0.19343594
-0.15928398 0.46378839 0.19884153
-0.1451474 0.46644247 0.19412223
-0.12293134 0.46393341 0.19627388
-0.11591738 0.46863553 0.19722013
-0.10466337 0.46799922 0.19941118
-0.093381658 0.46690097 0.19522527
-0.08623042 0.46101305 0.19462995
-0.074706197 0.46635419 0.19400802
-0.066439472 0.46897703 0.19458877
0.047527861 0.46487504 0.19462511
0.056500267 0.46926245 0.19751938
0.064483039 0.46324226 0.19520977
0.077357329 0.46644509 0.19660524
0.084244668 0.46394444 0.19366845
0.092689142 0.46868503 0.19283363
0.10666859 0.46917063 0.19228801
0.11592719 0.46924096 0.19912252
0.12645224 0.46817034 0.19731197
0.074059762 0.47166803 0.19229156
0.15448201 0.47335559 0.19436014
0.17765363 0.47372887 0.19007093
-0.1257313 0.4593558 0.20666628
-0.10767522 0.45888713 0.20073295
-0.093509547 0.45397839 0.20581204
-0.086818069 0.45660567 0.20276931
-0.073087759 0.45419157 0.20368505
-0.067622274 0.45195875 0.20327517
0.0493498 0.45287308 0.20444964
-0.16675587 0.46615958 0.20558521
-0.15453555 0.46697402 0.20454943
-0.1413098 0.46612391 0.20578462
-0.1343112 0.467592 0.20780423
-0.12568918 0.46500343 0.20154259
-0.11543828 0.46477199 0.20676389
-0.098676026 0.46404281 0.20250846
-0.086953387 0.46621999 0.20313153
-0.074954107 0.46617484 0.20203382
-0.066015802 0.46708116 0.20290765
0.04773517 0.46238285 0.204318
0.053160813 0.46232736 0.20318183
0.062992737 0.46814764 0.2061128
0.074976176 0.46767864 0.20346522
0.088144422 0.46884799 0.20550819
0.09004385 0.46223211 0.20908049
0.10222861 0.4689869 0.20870951
0.13519976 0.4683705 0.20515227
0.15246053 0.46658173 0.2093477
0.10458273 0.47233945 0.20552953
0.13597988 0.47069728 0.20950678
0.14496879 0.47213739 0.20397958
0.15694788 0.47200504 0.20447966
0.1735801 0.47405738 0.20759761
0.19210425 0.47006622 0.20983003
0.21369874 0.47365034 0.20476043
-0.11407759 0.45855349 0.21511292
-0.10695921 0.45864809 0.21457568
-0.094065152 0.45552787 0.21615571
-0.08476916 0.4545604 0.21066535
0.049769185 0.4593063 0.21682255
0.051390529 0.45518765 0.21667281
0.061155178 0.45759296 0.21353343
0.072976649 0.4575842 0.21334493
-0.15235497 0.46173757 0.21498874
-0.085043713 0.46414942 0.21395215
-0.07460776 0.46605778 0.21703026
0.05553022 0.46642381 0.21715465
0.066336565 0.46397811 0.21177241
0.07559967 0.46459997 0.21511243
0.087011188 0.46553689 0.2188451
0.095536955 0.46247637 0.21933389
0.10723591 0.46899378 0.21456245
0.11251523 0.46826082 0.21459618
0.049201563 0.47141242 0.21484302
0.057270382 0.47250882 0.21384111
0.11559565 0.47389647 0.2121108
0.12183162 0.47186434 0.2179295
0.15148878 0.47216511 0.2150093
0.16411071 0.47314107 0.21224046
0.17276245 0.47390011 0.21817598
0.18564445 0.47312415 0.21746424
-0.093800753 0.4583073 0.22986884
0.055213477 0.45445117 0.22357965
0.10122722 0.45957032 0.22197664
-0.13683499 0.46728081 0.22845849
-0.12456011 0.46431282 0.22633618
-0.10452908 0.46449479 0.22568887
-0.098315507 0.46660537 0.22783346
-0.086383089 0.46625182 0.22833072
-0.077308849 0.46563479 0.22635123
0.054935932 0.46678159 0.22272106
0.063915104 0.46236822 0.22459257
0.074080355 0.46627229 0.22504367
0.084073573 0.46338832 0.22537309
0.11344682 0.46386993 0.22353518
0.13481298 0.46728563 0.2255812
0.16888614 0.46690899 0.22463116
0.065358721 0.47293884 0.22531836
0.10748022 0.47318071 0.22513235
0.15483506 0.47216994 0.22617695
-0.14424866 0.45877203 0.23719613
-0.12256119 0.45673829 0.2341674
-0.1012814 0.45855272 0.23598218
0.061890952 0.45490313 0.23919639
0.077258006 0.4591355 0.23294355
-0.1939961 0.46551165 0.23539479
-0.15249258 0.46688187 0.235746
-0.12557222 0.46758431 0.23457873
-0.11798681 0.46526322 0.23653677
-0.10473852 0.46422574 0.23553351
-0.093936145 0.46755177 0.23026204
-0.085093364 0.46562904 0.23529416
-0.075856283 0.4650732 0.23322961
0.056966692 0.46596253 0.23332545
0.064751089 0.46741959 0.23624793
0.073623031 0.4670099 0.23380938
0.089333445 0.4621872 0.23236005
0.095903419 0.46484894 0.23114733
0.10431964 0.46680352 0.23592934
0.11589889 0.46777943 0.23971392
0.14649059 0.46649981 0.23411469
0.15504165 0.46831042 0.23390475
0.066402122 0.47279137 0.23537672
0.084478602 0.47222298 0.23551248
0.10785326 0.47294104 0.23393032
0.12219678 0.47278255 0.2377705
0.14532317 0.47250238 0.23639162
0.16326685 0.4731949 0.23658934
-0.1201252 0.45664841 0.24157451
-0.10859529 0.45703408 0.24088928
-0.092957929 0.45571256 0.24329755
-0.077572569 0.45600137 0.24603811
0.065683417 0.45645198 0.24504308
0.070075363 0.45595843 0.24606197
0.085821643 0.45737731 0.24876478
0.10708825 0.45930955 0.24113636
-0.16298144 0.46301353 0.24332099
-0.1554416 0.46581805 0.24677801
-0.12875628 0.46622804 0.2480818
-0.11435806 0.46211064 0.24843401
-0.10322844 0.46499366 0.24909088
-0.095873475 0.46410918 0.24113107
-0.08583805 0.46509659 0.24662213
-0.076119997 0.46452898 0.24061704
0.057266779 0.46829426 0.24296977
0.064312473 0.46524835 0.24063689
0.074540883 0.46458834 0.24425425
0.084496066 0.4647457 0.24546957
0.090016559 0.4621906 0.24329005
0.10223974 0.46503597 0.24533403
0.12234864 0.46994817 0.24219485
0.13657723 0.46675229 0.24389575
0.14291592 0.4662109 0.24096693
0.15017913 0.46898931 0.2431096
0.17363736 0.46974042 0.24140494
0.077200726 0.47286838 0.24312589
0.094167516 0.47237641 0.24509367
0.14181027 0.47339684 0.24754907
0.16502288 0.47361565 0.2426689
0.1713147 0.47254497 0.24652761
-0.10764776 0.45664153 0.25347364
0.072774574 0.45746297 0.25803211
0.1064758 0.45791116 0.25875348
-0.17222807 0.46513283 0.25365004
-0.14714722 0.4658168 0.25490189
-0.13595212 0.46440062 0.2551322
-0.12387943 0.46525878 0.25509128
-0.11515464 0.46249056 0.25797695
-0.10195907 0.4619076 0.2535623
-0.09766192 0.46525854 0.25777495
-0.088206708 0.46481341 0.25473133
0.059332471 0.46369633 0.25017369
0.06467288 0.46340585 0.25456482
0.075228572 0.46736586 0.25685513
0.083904982 0.46563649 0.25667983
0.094949566 0.46475765 0.254318
0.10172601 0.46392557 0.25395218
0.1154674 0.46601522 0.25452745
0.12377975 0.4618935 0.25789729
0.13566217 0.46722573 0.25526702
0.15184264 0.46639493 0.2537156
0.064067453 0.47257262 0.25258893
0.12360911 0.47313747 0.25306839
0.2588076 0.47288391 0.25450066
-0.084653243 0.45612529 0.26187855
0.068904616 0.4563964 0.26841056
0.073117644 0.45891136 0.26783052
-0.16214894 0.46320024 0.26522517
-0.15976007 0.46461076 0.26073235
-0.14890981 0.4624179 0.26486462
-0.13050707 0.46082562 0.26603267
-0.1234448 0.46219403 0.26381332
-0.11194047 0.46174985 0.26526776
-0.10338433 0.46693116 0.26633838
-0.084469438 0.46337807 0.26116902
0.066934049 0.46447417 0.26671597
0.088285305 0.46009696 0.26023707
0.094756834 0.46431315 0.26467294
0.10571846 0.46115854 0.26749781
0.1129936 0.46522877 0.26520523
0.12967604 0.46279249 0.26357666
0.1814533 0.46879399 0.26771012
0.073769785 0.47249037 0.26983759
0.081174649 0.47131446 0.26531169
0.10730556 0.4705599 0.26045474
0.16358615 0.47234055 0.26448405
0.19587445 0.47230533 0.26790607
0.25169888 0.47340894 0.26540291
-0.11382557 0.45703632 0.27044702
-0.10776249 0.4539001 0.27041668
0.073038377 0.45628035 0.2745496
0.083073139 0.45357537 0.27052775
0.096633263 0.45912695 0.27492163
-0.17693692 0.46590859 0.27358159
-0.16599967 0.46564767 0.27246732
-0.15275674 0.46574077 0.27275199
-0.12426218 0.46652305 0.27365524
-0.10580142 0.46601701 0.27659315
-0.093479387 0.46743083 0.27583465
-0.085497066 0.46631438 0.27561274
0.0667357 0.46296778 0.27599186
0.076883651 0.46529615 0.27246901
0.084877037 0.4662503 0.27548784
0.093349017 0.46641183 0.2727702
0.10791783 0.46942672 0.27775601
0.11627558 0.46116784 0.278846
0.12247326 0.46400359 0.27007136
0.14328751 0.46840194 0.27704298
0.15451093 0.46981943 0.27566615
0.16490701 0.46536207 0.27701271
0.19419828 0.4690232 0.27478647
0.18071698 0.47227484 0.27575812
-0.13199012 0.45981351 0.28496373
-0.1237753 0.45820057 0.28043458
-0.11304803 0.45908865 0.28576699
-0.093178734 0.45697051 0.28169608
-0.087917954 0.45433804 0.28464761
0.069358192 0.45715544 0.28513753
0.074847162 0.45656174 0.28784776
0.088564366 0.45939374 0.28561479
-0.21003726 0.460401 0.28568885
-0.15048523 0.46666971 0.28193277
-0.14590156 0.46127635 0.28659073
-0.13122895 0.46523541 0.28307977
-0.11217742 0.46368855 0.28323856
-0.10647457 0.46294373 0.28489751
0.069622092 0.46808058 0.28605786
0.076188833 0.46591932 0.28451973
0.083525382 0.46810591 0.28512368
0.093426049 0.46315831 0.28539431
0.10462342 0.46543476 0.28483114
0.11841797 0.4605417 0.28323856
0.12695658 0.46508616 0.28377354
0.1483897 0.46683344 0.28553447
0.15530796 0.46663976 0.28670686
0.16263412 0.46721479 0.28817475
0.17911378 0.46983021 0.28293473
0.10450216 0.47165883 0.28758538
-0.11596586 0.45451516 0.29424098
-0.093278855 0.45882738 0.29301107
0.072466403 0.4587276 0.29597718
0.087025918 0.4595204 0.29528996
0.090190545 0.45426059 0.29008266
-0.13675542 0.46368036 0.29675829
-0.1255838 0.46654105 0.29369396
-0.10465937 0.4650639 0.29405868
0.075113885 0.46629614 0.29671109
0.083786964 0.46714124 0.29311711
0.097930044 0.46205735 0.2971276
0.10464525 0.46364897 0.29639357
0.11315723 0.46352836 0.29526484
0.12409205 0.46419096 0.29490876
0.13104829 0.46492496 0.29729205
0.14047261 0.46798918 0.29277718
0.15794234 0.4657234 0.29092273
0.17697512 0.46885666 0.29968309
0.18152726 0.46950391 0.29610965
0.075728603 0.47096384 0.2907308
0.10244937 0.47201315 0.29529437
0.13705121 0.47065365 0.29748848
0.079742707 0.45823491 0.30386034
0.080410436 0.45329368 0.3060444
0.10629234 0.45797455 0.30480605
0.13429631 0.45899042 0.30366665
-0.19301857 0.46398762 0.30885684
-0.16499262 0.46404731 0.30520719
-0.11278944 0.4646408 0.30433267
-0.10745335 0.46700996 0.30843037
-0.095442772 0.46293527 0.3046571
0.084547743 0.46626338 0.30296904
0.1168415 0.46488351 0.30353981
0.12593351 0.46552309 0.30462331
0.13041131 0.46077469 0.30782855
0.14341876 0.46707901 0.30367443
0.18441544 0.46834323 0.30023441
0.19229543 0.46857163 0.30107772
0.0759506 0.47098821 0.308128
0.086543061 0.47092089 0.30914971
0.15294169 0.47174603 0.3038739
0.27597189 0.47295472 0.30779171
-0.16003004 0.45527232 0.31832382
-0.15223689 0.45796886 0.31722492
-0.1435262 0.45760769 0.31351653
-0.13148986 0.45765075 0.31897923
-0.12368418 0.45554918 0.31665659
-0.11758536 0.4516373 0.31909299
0.094251886 0.45620304 0.31627572
-0.17108889 0.46086162 0.3103385
-0.15380616 0.46171224 0.31249255
-0.14329635 0.4647364 0.31294763
-0.13708466 0.46400565 0.31510663
-0.11344539 0.4671492 0.31686687
-0.10268238 0.46430147 0.31483924
0.077050768 0.46856618 0.31196475
0.087519944 0.46346951 0.31766674
0.095486291 0.46832657 0.31201053
0.10171545 0.46739239 0.31424809
0.11580886 0.4653796 0.3142513
0.12191012 0.46266729 0.31492415
0.14465593 0.46945089 0.31179088
0.15071686 0.46579683 0.31125829
0.13606629 0.47134784 0.31942296
0.21769071 0.4722262 0.31409189
0.23674726 0.4717741 0.31661639
1.9593934 0.50244635 0.31737697
-0.12706378 0.45578548 0.32647169
-0.11355335 0.45994481 0.32838258
-0.098164283 0.45572394 0.32288742
0.086333357 0.45928568 0.3254174
0.090566255 0.45669916 0.3215318
0.1072123 0.45966169 0.3213087
0.11602738 0.45919943 0.32890111
-0.20390348 0.46502018 0.32849374
-0.18057691 0.46146432 0.32979178
-0.14694732 0.46023908 0.32198414
-0.11417246 0.46467942 0.32278457
-0.10651223 0.46484524 0.32819551
0.10250404 0.46819088 0.32391372
0.12191811 0.46320164 0.3286438
0.15287545 0.46932164 0.32724956
0.17078666 0.46322489 0.32280928
0.19348171 0.46802571 0.32415512
-0.15838449 0.45994931 0.33170775
-0.12121843 0.45728755 0.3302744
-0.10885514 0.4587813 0.33636618
0.085860476 0.45664978 0.33291125
0.099578075 0.45967874 0.33174407
0.10121211 0.45863098 0.33648965
0.1229791 0.45883352 0.33114335
-0.16542195 0.46214411 0.33043423
-0.12427041 0.46053582 0.33966747
-0.11623882 0.46253017 0.33716631
-0.10438427 0.46332449 0.337264
0.083065413 0.46770534 0.33294028
0.095393851 0.46728224 0.3363896
0.1143893 0.46553048 0.33486164
0.13550407 0.46421045 0.33821124
0.14471799 0.46586725 0.3371616
0.16448268 0.46796471 0.33609253
0.18770315 0.46915042 0.33854997
0.20416631 0.4680762 0.33999568
0.090247683 0.47078547 0.3382206
0.10415059 0.47103688 0.33375621
0.17304206 0.47196504 0.33456111
1.6716397 0.50047117 0.33352023
-0.12630516 0.45995855 0.34592977
-0.11128791 0.45690483 0.3448503
0.091227457 0.45877546 0.34142527
0.10486756 0.45799187 0.34710583
0.1216622 0.45576313 0.34284779
-0.19672628 0.46524578 0.34600177
-0.16487344 0.46223736 0.34699473
-0.14626732 0.46296188 0.34571207
-0.13666949 0.46580929 0.34355205
-0.11777218 0.46052992 0.34218174
0.086651117 0.46552646 0.3454451
0.097307436 0.46362025 0.34227905
0.10549459 0.46892706 0.34892687
0.11418229 0.46861273 0.34749383
0.12088335 0.46100765 0.34092006
0.13379073 0.46283597 0.34160843
0.14497083 0.46620882 0.34450978
0.156802 0.46250358 0.34783655
0.18442653 0.46537277 0.34550983
0.22636001 0.46946487 0.3479636
0.23487829 0.4682166 0.34763262
-0.1597773 0.45853195 0.35373941
-0.12954238 0.45565876 0.35589293
-0.1059625 0.45843694 0.35199079
0.096519694 0.4592973 0.35873541
0.10146331 0.45763475 0.35506952
0.12173361 0.45881775 0.35913801
-0.18298241 0.46348047 0.35162324
-0.15269753 0.46513331 0.35577956
-0.13633069 0.46370175 0.35338473
-0.12476979 0.46514055 0.35680303
0.095893294 0.46458822 0.35668656
0.10408138 0.46570271 0.35366338
0.1145375 0.46796232 0.35697535
0.12285055 0.4613319 0.3537415
0.13309368 0.4696106 0.3549718
0.15320265 0.4670428 0.35455775
0.16746093 0.46956071 0.35468084
0.17017806 0.46876228 0.35979101
0.20340067 0.46958056 0.35094973
0.10262413 0.47100037 0.35864213
0.12065163 0.47110954 0.35631934
-0.15623608 0.45976833 0.36499777
-0.14910901 0.45903268 0.36738744
-0.13282338 0.45515269 0.36599076
-0.12377207 0.45926198 0.36180648
-0.11706726 0.45995966 0.36500525
0.10515776 0.45739031 0.36643985
0.11466391 0.45859069 0.36615157
-0.16515353 0.46549183 0.36704606
-0.15434484 0.46211722 0.36007094
-0.14565878 0.4659867 0.36521715
-0.13894592 0.46438268 0.36097994
-0.11636224 0.46511164 0.36254656
-0.10908575 0.46362343 0.36364689
0.095652267 0.46774065 0.36592162
0.10432976 0.46194029 0.36389154
0.1142431 0.46516746 0.36504966
0.12554038 0.46450469 0.36905497
0.16777737 0.46874344 0.36937693
0.17502689 0.46543199 0.36891034
0.22338134 0.46882114 0.36848313
0.27326888 0.46916139 0.36014119
0.093454562 0.4706021 0.36917159
-0.12411186 0.45749187 0.37586012
0.12649162 0.45986536 0.37153307
-0.14262109 0.46043211 0.37165338
-0.12632723 0.46058607 0.37016404
0.095433466 0.46770984 0.37607282
0.10476271 0.46342933 0.37512353
0.11529078 0.4638449 0.37737709
0.13502169 0.46998742 0.37591368
0.14163555 0.46521896 0.37509516
0.17071438 0.46856555 0.37514114
0.18702148 0.46558568 0.37675357
0.19935827 0.46845534 0.3703604
0.22224347 0.46982425 0.37996513
-0.11356182 0.45814162 0.38035184
0.099048063 0.45615402 0.3886784
0.10450944 0.45457566 0.38486868
0.11637564 0.4560695 0.38052773
0.12530969 0.45984665 0.38657174
0.14466649 0.45882449 0.38223565
-0.11380759 0.46698895 0.38126904
0.098086201 0.4678739 0.385324
0.10556328 0.46706945 0.38831565
0.13567641 0.46950179 0.38622463
0.14062281 0.46422726 0.38977692
0.15294547 0.46643913 0.38463071
0.18172061 0.46640486 0.38149941
0.11215031 0.47016633 0.3879607
0.099692792 0.46709901 0.39092687
0.11337642 0.46698186 0.39173427
0.12031743 0.46296442 0.39197552
0.14329635 0.4647364 0.39639416
0.15677501 0.46564528 0.39323199
0.16551608 0.46560931 0.39573425
0.17341268 0.46685326 0.39599442
0.18317869 0.46854588 0.39960372
0.19496498 0.46844649 0.39108402
0.20601568 0.46822655 0.39580074
0.21321186 0.4671084 0.39341664
0.1057814 0.46629581 0.40417883
0.11550295 0.46451721 0.40546104
0.12409781 0.46891493 0.40295455
0.14818844 0.46398386 0.40850252
0.15508485 0.46620736 0.40677974
0.17297043 0.46563071 0.40327519
0.18586719 0.46721965 0.4048802
0.19466873 0.46578926 0.40585127
0.22217859 0.46988672 0.4083398
0.26891181 0.46825305 0.40653113
0.10705395 0.45919177 0.41659826
0.11316972 0.45843536 0.41319519
0.10687025 0.46636605 0.41595763
0.12368115 0.46382412 0.41593075
0.13440685 0.46746191 0.41156596
0.14387698 0.46201348 0.41682348
0.15713155 0.46421295 0.41160145
0.18386558 0.46950924 0.41742602
0.19842203 0.46650609 0.41291019
0.20186974 0.46639758 0.4193944
0.18095331 0.47020316 0.41145498
0.10867249 0.45803237 0.42224279
0.11679401 0.4568142 0.42504969
0.1174012 0.46702391 0.42703575
0.12489072 0.46276522 0.42717168
0.13351046 0.46542415 0.42299372
0.16281804 0.46444002 0.42499802
0.18588094 0.46655732 0.42155814
0.21562886 0.46658659 0.42836264
0.22353409 0.46566221 0.42614356
0.23326796 0.46825409 0.42679563
0.24434407 0.46912235 0.42919442
1.648594 0.49892598 0.42192715
0.11969922 0.45994681 0.43455222
0.14408384 0.45932001 0.4381533
0.11295766 0.46356088 0.4371869
0.13351005 0.4621779 0.43028966
0.141965 0.46442929 0.4323318
0.15403385 0.46515787 0.43629259
0.16765422 0.46580696 0.43639129
0.17480436 0.46724656 0.43372655
0.18602432 0.46693912 0.43971428
0.19983347 0.46835086 0.43229055
0.20352653 0.46873528 0.4395386
0.24716268 0.46645835 0.43370512
0.38974756 0.4696106 0.43596572
1.5860755 0.49884087 0.43663454
1.8484713 0.49929854 0.43687603
0.12397332 0.45998734 0.44853219
0.11617424 0.46438023 0.44840452
0.12422435 0.46879011 0.44935325
0.13458107 0.46513849 0.44485807
0.15459378 0.46283656 0.4447417
0.16263975 0.46644467 0.44427079
0.17960384 0.46765092 0.44450641
0.19297653 0.46767795 0.44524148
0.20561866 0.46550694 0.44364464
0.22570828 0.46749076 0.44654638
0.23580861 0.46615016 0.44740361
0.28260398 0.46944451 0.44046217
0.16859582 0.45913103 0.4590126
0.11801594 0.46358654 0.45482725
0.12653033 0.46130544 0.4568958
0.1331585 0.4679901 0.45261726
0.17571956 0.4673028 0.45539206
0.18334642 0.46127781 0.45291236
0.19351977 0.46900159 0.45578834
0.20266537 0.46228456 0.4559713
0.21185136 0.46714276 0.45587701
0.2220338 0.46993342 0.4573175
0.25061911 0.46906626 0.45567277
0.26915589 0.46948063 0.4522039
0.38168618 0.46781033 0.45734695
0.44156179 0.47022033 0.45767087
1.7718537 0.49896032 0.45265922
0.12900452 0.45439136 0.4649885
0.13766004 0.45938304 0.46647161
0.144803 0.45942074 0.46308678
0.12497514 0.46439973 0.46496153
0.13595141 0.46553442 0.46121296
0.14444664 0.46613812 0.46205184
0.15357143 0.46440372 0.4642202
0.16466901 0.4664261 0.46355778
0.17912006 0.46417081 0.46340314
0.1976741 0.46675724 0.46469733
0.22775403 0.46566457 0.46807566
0.25452736 0.46814859 0.46217719
0.29084611 0.46938616 0.4685038
0.30229691 0.46804884 0.46858659
0.41812089 0.46857187 0.46534714
1.6982484 0.49815676 0.46669114
0.12279018 0.45788094 0.471477
0.12325954 0.46745747 0.47311389
0.14954428 0.46603614 0.4768565
0.21692832 0.46562988 0.47541186
0.2337532 0.46944374 0.47935846
0.24102984 0.46946484 0.47418725
0.27562037 0.46806884 0.47924697
0.28662854 0.46610382 0.47910944
0.29557297 0.46868712 0.47551164
0.35997614 0.46723643 0.47950509
1.5186161 0.49838662 0.47744423
0.12709551 0.45767969 0.48649147
0.12601961 0.46168649 0.48273939
0.13539246 0.46427554 0.48588246
0.14238261 0.46669316 0.48100618
0.15474764 0.46367013 0.48352584
0.16669214 0.46674904 0.48405159
0.17803517 0.46393335 0.48237577
0.18740723 0.46876684 0.48292649
0.19573417 0.46705806 0.48073569
0.22710016 0.46689409 0.48580444
0.2359326 0.46574429 0.48345733
0.24695212 0.46850419 0.48487127
0.25967866 0.46607304 0.48874775
0.26866367 0.46869805 0.48570397
0.28050572 0.4680126 0.48706514
0.33860502 0.46666396 0.48528263
0.36790144 0.46884802 0.48929203
0.16592371 0.45992926 0.49815783
0.1344243 0.46193159 0.49694294
0.14632064 0.46718985 0.49312618
0.15595908 0.46135947 0.49548638
0.1658413 0.46755582 0.49793136
0.17376813 0.46829146 0.49469259
0.18173233 0.46139565 0.49152657
0.20111661 0.46743667 0.49282485
0.21219441 0.46714866 0.49583623
0.22128808 0.46633264 0.49415353
0.26505136 0.467309 0.49805358
0.28827724 0.46437064 0.49950215
0.33302721 0.46911094 0.49477839
0.37485969 0.4690831 0.49788472
0.46699989 0.46895391 0.49881968
1.401516 0.49572447 0.49723125
0.14005676 0.45986563 0.50113875
0.19519109 0.45955047 0.5012641
0.13284676 0.4618406 0.50654846
0.15506253 0.46602055 0.50608206
0.17719898 0.46526331 0.50363022
0.1880869 0.46499139 0.50725472
0.19512852 0.46723866 0.50111669
0.20470984 0.46358383 0.50089538
0.22530402 0.4665029 0.5023874
0.26036733 0.46452686 0.50907302
0.27373248 0.46745706 0.50349069
1.3514708 0.49575052 0.50728607
0.14470483 0.45879772 0.51634187
0.15248387 0.45820847 0.51209462
0.13554852 0.46302235 0.51597065
0.14377788 0.4637754 0.51330996
0.15241909 0.46587563 0.5118953
0.16298217 0.46144316 0.51588297
0.17105675 0.4657158 0.51226068
0.20199864 0.46698335 0.51730168
0.2102731 0.46770358 0.51339066
0.2434656 0.46250394 0.51792347
0.2532168 0.46574488 0.51596421
0.28618181 0.4651621 0.51485908
0.30815226 0.46655369 0.51225305
0.34408939 0.46758074 0.51000416
0.3636983 0.46615726 0.51858252
0.37405851 0.46913147 0.51423353
1.4478112 0.49612084 0.51317197
1.7525585 0.49782801 0.51494175
0.13934712 0.45967221 0.52921796
0.15788864 0.45805773 0.52872884
0.19398496 0.45913142 0.52185285
0.13908532 0.46674338 0.52830493
0.1559906 0.46051168 0.52288723
0.17588702 0.46637258 0.52553177
0.1945108 0.46822593 0.52315444
0.21654695 0.46504053 0.52748197
0.23779534 0.46688971 0.52799845
0.27533674 0.46694493 0.52582753
0.34119427 0.46597981 0.52413779
0.47513971 0.4670096 0.52439183
1.3946778 0.49604708 0.5230121
0.1649057 0.45817593 0.53553456
0.17789073 0.45961338 0.53103691
0.15046099 0.46448284 0.53516942
0.16880235 0.46536312 0.53278595
0.18939106 0.46749294 0.53539169
0.20519894 0.46717143 0.53696704
0.21104842 0.46283764 0.5386216
0.23469234 0.46479931 0.53264952
0.25014716 0.46661773 0.53103673
0.26159754 0.46435666 0.53172606
0.2758294 0.46632403 0.53696734
0.28525987 0.46823889 0.53305578
0.33709013 0.46715817 0.53706336
0.38832667 0.46935862 0.53249598
1.6085563 0.49598971 0.53655738
0.14378305 0.45792502 0.54468787
0.15206769 0.45737919 0.54042476
0.1631006 0.45678642 0.54476959
0.19273829 0.4594731 0.54411155
0.14291397 0.46311623 0.54165697
0.17283398 0.46010238 0.54449469
0.18235382 0.46277106 0.5432992
0.19216804 0.46607786 0.54262596
0.26856452 0.46406293 0.54482913
0.27923799 0.46377724 0.54311657
0.29469648 0.46663946 0.54940045
0.33090729 0.46593547 0.54729271
0.35582161 0.4683066 0.54502779
0.37122533 0.46867779 0.54735357
0.45880765 0.46693549 0.54299903
1.3820349 0.4946025 0.54664004
1.5489218 0.49685359 0.54798716
1.744449 0.49784687 0.54648829
0.17534904 0.45863318 0.55179894
0.18659131 0.45717382 0.55494159
0.15655483 0.46246526 0.55510151
0.16762692 0.46106875 0.55870014
0.18552954 0.46255389 0.55202436
0.19745947 0.4623147 0.55641067
0.20815365 0.46682137 0.55692166
0.21680975 0.46691766 0.55219448
0.22886878 0.46589115 0.55515724
0.24211116 0.46660373 0.55999291
0.27632833 0.46466389 0.5594306
0.28690496 0.46776137 0.55694813
0.30761454 0.46513003 0.55052906
0.31250593 0.46401566 0.55866969
1.6684228 0.49648613 0.55600917
1.9004114 0.49968249 0.55733788
0.14952005 0.45956668 0.56469518
0.19527431 0.4593004 0.5644238
0.26932821 0.45940876 0.56868166
0.14822763 0.4636406 0.56018794
0.17938691 0.46083871 0.56352574
0.21181415 0.46259043 0.56598169
0.22077993 0.46703848 0.56154764
0.23141028 0.46281072 0.56086552
0.25630003 0.46430224 0.56593871
0.26651382 0.46682787 0.56315815
0.30302191 0.46685618 0.56382048
0.32615012 0.46285778 0.56011146
1.4295311 0.49558362 0.56487215
1.8076906 0.4968515 0.5658232
0.15219548 0.45554647 0.57402551
0.16360092 0.45825467 0.57814819
0.18420376 0.4566955 0.57751489
0.21487227 0.45699179 0.57355082
0.25139621 0.4591867 0.57990474
0.16154034 0.46459615 0.57140839
0.18268608 0.46099356 0.57310724
0.19512925 0.46112981 0.57839936
0.20417361 0.4612498 0.57390153
0.22660112 0.46258751 0.57526147
0.2355607 0.462699 0.57018751
0.25010079 0.46496275 0.57712674
0.2863771 0.46431631 0.57832962
0.30854979 0.46267286 0.57339507
1.3229969 0.49458635 0.57916176
1.7357982 0.49785265 0.57790083
0.17556979 0.45779771 0.5831458
0.18777725 0.45722014 0.58789307
0.17533344 0.46522889 0.58241838
0.20811668 0.46173993 0.58417362
0.22998214 0.46112058 0.58322668
0.2439107 0.46204093 0.58894193
0.26567325 0.46407935 0.58515662
0.27950466 0.46773413 0.5886541
0.29560235 0.4633863 0.583992
0.31660226 0.46587458 0.58734238
0.3816812 0.46625665 0.58195907
1.4789401 0.49626148 0.58383846
1.6632847 0.4974888 0.58736539
1.8812937 0.49720991 0.58832592
0.17921172 0.45891038 0.59435451
0.20158428 0.45953038 0.59613442
0.22343852 0.4582158 0.59475303
0.23337027 0.45953622 0.59120864
0.15834258 0.46122089 0.59546298
0.16772541 0.46135828 0.5916388
0.2007937 0.46587437 0.59396231
0.24876697 0.46266878 0.59984934
0.25950617 0.46514684 0.5972966
0.28385335 0.46640944 0.59718883
0.30777791 0.46633816 0.5946039
0.32058507 0.46316406 0.59424078
0.18163887 0.45684162 0.60182452
0.20427687 0.45734423 0.60353225
0.22608507 0.45534509 0.60130346
0.16225894 0.46410465 0.60912097
0.17187797 0.46424896 0.60522121
0.19526772 0.46661365 0.60964698
0.21564005 0.46547455 0.60377264
0.26320595 0.46325558 0.60523087
0.27408749 0.46570659 0.60240835
0.30217189 0.4634895 0.60803533
0.35483938 0.46705174 0.60602391
0.37135625 0.4673003 0.60957861
1.3182222 0.49607742 0.60521346
1.5257666 0.49524739 0.6018135
1.7183514 0.49566805 0.6063264
0.16333926 0.45895043 0.61288846
0.1739185 0.4533256 0.6118955
0.17372283 0.4609071 0.61125547
0.1870493 0.46180734 0.61847609
0.19863804 0.46612108 0.61943507
0.20973869 0.46093214 0.6185385
0.21918388 0.46049219 0.61300462
0.24337697 0.46599203 0.61478293
0.26898855 0.46468672 0.61763167
0.27829677 0.46424842 0.61103868
0.29370418 0.46505848 0.61652225
0.34573376 0.46748599 0.61397016
1.2145953 0.49260485 0.61212444
1.410392 0.49527925 0.6162588
1.9681058 0.49928844 0.61486703
0.16604625 0.45410776 0.62232888
0.23689574 0.45965832 0.62806082
0.19495657 0.46070105 0.62534785
0.22435799 0.46268713 0.62648368
0.24933313 0.46439895 0.62881476
0.2588802 0.46397203 0.62256402
0.28504449 0.46662122 0.62487358
0.3094216 0.46568459 0.62167007
0.31318855 0.46267581 0.62875462
1.3025922 0.49394748 0.62642652
1.7845434 0.49566579 0.62911814
1.8783823 0.49877331 0.62422919
0.19321001 0.45988563 0.63743681
0.21656871 0.45876551 0.63730377
0.2263331 0.458354 0.63162899
0.18094826 0.46281242 0.63488883
0.20461868 0.46295327 0.6368041
0.21412337 0.46195146 0.63058525
0.25213519 0.46107897 0.63541603
0.27514973 0.46647877 0.63084435
0.3421776 0.46692544 0.63164008
0.19643036 0.45900109 0.64734805
0.20641792 0.45859873 0.64202952
0.18542096 0.46552432 0.64951837
0.24327381 0.4631854 0.64384705
0.3361029 0.46347672 0.64570355
0.42798603 0.46533915 0.64808923
1.3390614 0.49249813 0.64343244
1.5654927 0.49413896 0.64935744
1.6395725 0.49620044 0.64549947
1.7205284 0.49879277 0.64161199
0.19991517 0.45853469 0.65807319
0.22428611 0.4577125 0.65850723
0.17525691 0.4659327 0.65445024
0.18800506 0.46341425 0.65797055
0.21142767 0.46097869 0.6565789
0.22408487 0.46568388 0.65795428
0.23653072 0.46552742 0.65819466
0.24689755 0.46141568 0.65281612
0.28545645 0.46608678 0.65294719
0.41918072 0.46672207 0.65876764
1.1486602 0.49157208 0.65852922
1.1948558 0.49252641 0.65644234
1.9600903 0.49970159 0.6507777
0.18986952 0.45948485 0.66406894
0.24026571 0.4598839 0.6679247
0.17968354 0.46043101 0.66988772
0.21592659 0.4620049 0.66964471
0.29028431 0.46507719 0.66330057
1.3322575 0.49362186 0.66951209
1.3877703 0.49435636 0.66614574
1.7772026 0.49633741 0.66223979
0.20392461 0.45902333 0.67041296
0.32554314 0.45985088 0.67900968
0.29441333 0.4628273 0.67215532
0.32263485 0.46450192 0.67330182
1.183586 0.49215165 0.67788887
1.630134 0.49641335 0.67547417
0.19723794 0.45967376 0.68816996
0.28594881 0.45760623 0.68336111
0.19536403 0.4638662 0.68204063
0.20846708 0.46042278 0.68439323
0.28506473 0.46479911 0.68137544
0.37255248 0.46577564 0.68425095
1.3736796 0.49316618 0.68971503
1.4983051 0.49594927 0.68539155
0.18571888 0.45836878 0.69093543
0.21303236 0.46159905 0.69844377
0.26548776 0.46402568 0.69882852
0.2790041 0.46377492 0.69871521
0.30629012 0.46314162 0.6976251
1.3241227 0.49444094 0.69510376
1.8605162 0.49938673 0.69256341
1.9616003 0.50248253 0.69008368
0.25315973 0.4575493 0.70151478
0.28118116 0.45857167 0.70384407
0.19002087 0.46009699 0.70593834
0.20229292 0.46248391 0.70470405
0.24057302 0.46349877 0.70325512
0.31117666 0.46143556 0.70810437
0.3246544 0.46471962 0.70608592
0.41371277 0.4655503 0.70024103
1.4811944 0.49402013 0.70971012
1.5415827 0.4932664 0.70466
0.20441796 0.45857811 0.71165472
0.19388014 0.46051154 0.71939719
0.21840148 0.46416283 0.7149682
1.2033367 0.49044496 0.71724677
1.3104576 0.49349353 0.71790886
1.3609233 0.49253175 0.71385461
1.4255608 0.49524736 0.71501917
0.19658689 0.45806581 0.72883677
0.22237737 0.45489454 0.72720474
0.22249001 0.4638072 0.7275514
0.23357844 0.46296227 0.72090942
0.24904357 0.46160465 0.72652775
0.37933916 0.4645052 0.72370386
1.6675333 0.4930909 0.72540879
1.8456856 0.49843681 0.72461891
1.9375871 0.49940664 0.72061497
0.21264254 0.458848 0.73855615
0.23900713 0.46452183 0.73667544
0.29365197 0.46470258 0.73322344
0.35641018 0.46459562 0.73958963
1.1014473 0.48995435 0.739797
1.1452152 0.490004 0.73945618
1.2397406 0.49033058 0.73826462
1.4037879 0.49186495 0.73569524
1.5425007 0.49682301 0.73829776
0.20188174 0.46122995 0.74730206
0.24278775 0.46273369 0.74765515
0.25534976 0.46398908 0.74385381
0.2846849 0.46450615 0.74634308
0.34376648 0.46340033 0.7452715
0.3748861 0.4637574 0.74479085
1.196735 0.49220949 0.74224764
1.2997702 0.49370351 0.74229085
1.3553866 0.49444118 0.7417981
0.2329758 0.45800182 0.75982332
0.2448931 0.45773157 0.75376958
0.26065436 0.4553909 0.7584281
0.23150449 0.46404904 0.75529504
0.2723442 0.4637754 0.75149202
0.30116093 0.46258289 0.75091344
1.1317562 0.4892647 0.75947982
1.6611309 0.49447116 0.75788629
1.7418087 0.49570739 0.75693679
1.8221985 0.49544954 0.75307328
1.9286299 0.49999732 0.75645822
0.20709755 0.45497712 0.76549172
0.20649765 0.46254697 0.76339966
0.27745804 0.46312654 0.76481402
0.33895096 0.46358824 0.76766652
1.1831967 0.4914901 0.76318967
1.3417642 0.49378243 0.76556849
1.5314491 0.49700254 0.76666433
1.5925531 0.49522358 0.76163757
0.2523455 0.46215054 0.77541292
0.2832121 0.46324715 0.77980381
1.0765877 0.48940158 0.77964568
0.2555908 0.45881662 0.78483796
0.30142725 0.46288216 0.78778189
0.41110998 0.4632481 0.78101993
1.2204759 0.49192721 0.78648436
1.2754737 0.49350289 0.78955865
1.3260885 0.49254364 0.78811759
1.3830147 0.49278134 0.78843397
1.5095735 0.49406388 0.78959566
1.8162477 0.49694863 0.78853428
1.9126999 0.49906015 0.78963822
2.0062554 0.4987931 0.78625584
0.22927511 0.45683035 0.7929588
0.3041907 0.45775199 0.79462165
0.24421087 0.46102634 0.79440129
0.38618401 0.46324649 0.79802412
1.5810905 0.49538621 0.79087603
1.6550055 0.49608085 0.79075956
1.7357463 0.49726179 0.79110718
0.33973426 0.46242324 0.80416518
1.1155154 0.49251133 0.80690318
0.3142201 0.46285528 0.81944525
1.0065098 0.4877688 0.81407636
1.0511335 0.48912945 0.81916761
1.2117794 0.49330947 0.81144744
1.2651482 0.49426201 0.81439865
1.3125247 0.49214503 0.8118211
1.3669273 0.49156767 0.81169581
1.4882439 0.49137187 0.81243956
0.25283113 0.45814058 0.82093173
0.22275595 0.46036777 0.82009912
0.36789486 0.46256652 0.82973689
1.1931168 0.49107173 0.82993108
1.4403626 0.49606827 0.82022244
1.5742923 0.49703881 0.82257152
1.65175 0.49864581 0.82533896
1.7281635 0.4985702 0.82487369
1.8114173 0.49888495 0.82479811
1.9025167 0.49962541 0.82515335
2.0006714 0.50037646 0.82518107
2.1151066 0.50294977 0.82803994
0.27251172 0.45970961 0.83397985
0.22818519 0.46188721 0.83903313
0.32065028 0.46244469 0.83536059
0.99556267 0.48861507 0.83451015
1.2439402 0.4912087 0.83233297
1.3018135 0.49287072 0.83730972
0.24524145 0.4591547 0.84518236
0.27723119 0.45792922 0.84768611
0.30738634 0.46263748 0.84277993
1.0416201 0.49060476 0.84150761
1.0837892 0.49000156 0.84377545
1.1310487 0.49066076 0.84820533
1.3603615 0.49364981 0.84056431
1.4203675 0.49381086 0.8425495
1.4801207 0.49280885 0.84226072
1.5523597 0.49442273 0.8465305
1.6261995 0.49515039 0.84901959
1.6972309 0.49379665 0.84752154
0.26368558 0.45810795 0.85433829
0.23242153 0.46074903 0.85380697
1.2336164 0.49223706 0.85724843
1.7935337 0.49765942 0.85535634
1.8801059 0.49736425 0.85538018
1.9826578 0.49924424 0.85917121
0.29864734 0.46030161 0.862813
1.0656345 0.48793691 0.86026967
1.1119776 0.48833948 0.86501688
1.2866143 0.49216473 0.86004579
1.3393673 0.49103433 0.86077595
1.4066652 0.49367946 0.86838645
1.4639035 0.49190447 0.86768508
2.0960717 0.50166506 0.86372524
2.2195883 0.50415051 0.86814672
0.30486125 0.45980394 0.87988549
0.23740302 0.46076158 0.87117946
0.27065542 0.46017841 0.87578934
0.31975365 0.46098578 0.87499785
1.1619893 0.48926872 0.87068498
1.21969 0.49208459 0.87984705
1.5470324 0.49680215 0.87935048
1.6842582 0.49391308 0.87860197
0.29107076 0.46040219 0.88787925
0.34174457 0.461804 0.8875708
1.0949359 0.4869343 0.88316238
1.2694515 0.49087921 0.88141948
1.6226282 0.49793273 0.88389295
1.7646525 0.49372214 0.88040525
0.26034522 0.45712355 0.89458454
0.9926064 0.48682725 0.8923822
1.1976362 0.48899716 0.89658397
1.1508868 0.49030507 0.89433706
1.334231 0.49392 0.8909685
1.3867968 0.49166569 0.89041322
1.4456183 0.49047059 0.89179182
1.9623069 0.49768364 0.89197844
2.0737565 0.4997696 0.89784032
1.8837917 0.50158376 0.89744431
0.33283791 0.45912251 0.90908355
0.97599095 0.4856557 0.90889704
1.5242847 0.49416199 0.90254617
1.5962914 0.49441299 0.90665525
1.7450218 0.4922469 0.90956265
0.3020809 0.45721596 0.919855
0.31827211 0.45924786 0.91673166
1.1303149 0.48772198 0.91080356
1.4261429 0.48876613 0.91499937
1.2645248 0.49412656 0.91124076
1.3236876 0.49514034 0.91800219
1.6853369 0.4979859 0.91723579
1.8374622 0.49367031 0.91591686
0.39491227 0.46078086 0.92809707
0.96050537 0.48512509 0.92637569
1.0731565 0.48965403 0.92941064
1.3795437 0.49391609 0.9203949
1.5053742 0.49276185 0.92769676
1.9467602 0.49735793 0.92680699
0.28839728 0.45905426 0.9303931
1.1176953 0.48843592 0.93341124
1.3501171 0.48893955 0.93582916
1.2442251 0.49196637 0.9304328
1.3039666 0.49331731 0.93885821
1.5797654 0.49378431 0.934578
0.36439803 0.46016437 0.94364005
1.1695538 0.48922139 0.94146031
1.2160071 0.48695499 0.94340873
1.6634878 0.49597701 0.94390279
1.7464449 0.49638328 0.94972748
0.99317795 0.48729119 0.95684338
1.0995373 0.48703423 0.95154679
1.2777234 0.48927793 0.95477074
1.4346757 0.49610871 0.95619804
1.4910009 0.49285224 0.95552713
1.841549 0.49829799 0.95874566
1.1564012 0.48990193 0.96475458
1.7052586 0.48948494 0.96705675
1.3474373 0.49303776 0.96929669
1.5669336 0.49435335 0.96468544
0.97277009 0.48484674 0.97065276
1.0875865 0.4883284 0.97494727
1.2066298 0.48903298 0.97042722
1.4117906 0.49360466 0.9774285
1.6471418 0.49559027 0.97347778
0.26887831 0.45695484 0.9809469
0.38201287 0.46026626 0.98723829
1.0182979 0.48531181 0.98026812
1.0631248 0.48450023 0.98735267
1.2720751 0.49266967 0.985659
1.4810095 0.49443331 0.98628753
1.8171344 0.49598736 0.98731375
1.0022546 0.48508021 0.9991256
1.1877577 0.48769203 0.9901467
1.2384872 0.48612756 0.99531704
1.3791316 0.48798344 0.99148923
1.330766 0.49258167 0.99330842
1.552732 0.49466878 0.99410099
1.11652 0.48626098 1.0000987
1.4583801 0.49224716 1.0088536
1.6294607 0.49495822 1.0022554
1.9260944 0.49958014 1.0018237
2.026607 0.49919137 1.0081689
0.98319286 0.48360264 1.0150126
1.0525341 0.48667595 1.0121939
1.1744632 0.48861253 1.0144171
1.2199174 0.48508736 1.016189
1.3144588 0.49238172 1.0175974
1.5314934 0.49303716 1.0190722
1.7239431 0.49854615 1.017819
1.099411 0.48574057 1.020025
1.3792599 0.49322137 1.0285413
0.97249061 0.48613265 1.0394138
1.0345582 0.48583463 1.0303209
1.1585323 0.4886705 1.0366194
1.2924157 0.49030021 1.0374506
1.4425764 0.49230307 1.0359138
1.6178975 0.49618196 1.0348209
1.9017639 0.49755415 1.032312
1.0826666 0.4855023 1.0402929
1.1300914 0.48388985 1.0476499
1.2157456 0.48954928 1.0490571
1.3507612 0.48913077 1.0449532
1.5082718 0.49091023 1.0425059
1.6946172 0.49499822 1.0414054
1.7628616 0.49024776 1.0402886
2.0046818 0.49784407 1.0418661
0.89154994 0.48422021 1.0595728
0.95346993 0.48494491 1.0553823
1.0216852 0.48738909 1.0535051
1.2730986 0.48927683 1.0592543
1.421595 0.49084547 1.0592996
1.5828817 0.49085763 1.0524441
2.1289434 0.50086784 1.0580817
1.0662575 0.48554641 1.0609325
1.6716305 0.49323815 1.068397
0.94057119 0.48683801 1.0780517
1.0056863 0.48773104 1.073789
1.1205758 0.48676744 1.0756437
1.1970311 0.48876357 1.0700859
1.5630884 0.48995724 1.0794802
1.337358 0.49020553 1.0725633
1.5022093 0.49409422 1.0776691
1.9865501 0.49748141 1.0773937
0.91782928 0.48408663 1.0898037
1.0548869 0.48791966 1.0867068
1.2563888 0.48931172 1.0831608
1.4072187 0.49163023 1.087497
1.7665883 0.49547657 1.08465
0.79436213 0.48157483 1.0900927
1.1779741 0.48796752 1.0907636
1.6515115 0.49236622 1.0970129
1.0356517 0.48706713 1.1048189
1.3839201 0.4896498 1.1089417
1.5436534 0.48927894 1.1066887
1.3241737 0.49152839 1.1006142
1.481268 0.49291238 1.1026546
0.81612301 0.48082733 1.1189704
0.97255772 0.48838654 1.1135763
1.0807128 0.48454025 1.1125326
1.1180316 0.49275917 1.1109302
1.1677201 0.49074456 1.1196065
1.2457983 0.4917413 1.1124786
1.7519336 0.49614838 1.118576
0.88161892 0.48350146 1.1236802
0.9491787 0.48569334 1.1258671
1.0167772 0.48649743 1.1232709
1.304518 0.49076998 1.123546
1.8395289 0.49473077 1.1284772
0.86248404 0.48288682 1.1393898
1.0623533 0.48426411 1.1324693
1.1457721 0.48910138 1.1377188
1.1875117 0.48320755 1.1380625
1.2224118 0.48961744 1.1307753
1.3723631 0.49166471 1.1396371
1.4653598 0.49341291 1.1313095
1.6390047 0.49373239 1.1306863
0.99951255 0.48679549 1.1435126
1.0397224 0.48227432 1.1478767
1.2830285 0.48948345 1.1448423
1.4282793 0.48737058 1.1435988
1.5418611 0.49395868 1.146678
0.84022468 0.48071864 1.1509544
0.90689242 0.48268589 1.1548904
0.97559512 0.48416063 1.1562557
1.6098831 0.4905881 1.1530632
1.7440244 0.49875659 1.1570914
0.88427323 0.48056772 1.1672785
1.0213884 0.4822633 1.1678083
1.0944397 0.48302928 1.1656959
1.1735499 0.48480484 1.1645436
1.2655215 0.48973951 1.1695917
1.3490506 0.48991323 1.1609133
0.68323022 0.47994882 1.1756586
0.82455009 0.48225042 1.1713016
0.95647454 0.48385581 1.174354
1.5220755 0.49349153 1.1740478
1.7094234 0.49442714 1.1781843
1.8348898 0.49806279 1.1704128
0.93282419 0.48149556 1.1869135
1.0020645 0.4819591 1.1867052
1.1535926 0.48425436 1.1854124
1.3261666 0.48840165 1.1823417
1.4259301 0.49244589 1.1830149
1.5939062 0.4912568 1.1844909
0.87069911 0.48325238 1.1913953
1.0817052 0.48549154 1.1928977
1.2096971 0.48297426 1.1994506
1.2454422 0.48920891 1.1920835
1.4995277 0.49231306 1.1992642
1.8055762 0.49535379 1.1970637
0.91611058 0.48263514 1.2080286
1.1339533 0.48396143 1.2066134
1.3988711 0.48976901 1.2027177
1.6858411 0.49311656 1.2062496
0.99227113 0.48619014 1.2170147
1.0612959 0.48491251 1.21213
1.3159177 0.49138653 1.2149686
0.89780891 0.48318151 1.2273713
0.96665448 0.48331201 1.2286905
1.1073725 0.48098657 1.2204225
1.3803694 0.48998469 1.2294595
1.6547149 0.48984677 1.2286711
1.5843471 0.49393895 1.2209728
1.7848374 0.49492031 1.2290517
1.9204949 0.49890149 1.2239047
0.93859035 0.47928917 1.2368013
1.041194 0.48459995 1.2317185
1.2014194 0.48708248 1.2332391
1.2865421 0.48785138 1.2304099
1.4871652 0.49439207 1.232602
0.84909946 0.47840235 1.2495016
1.257051 0.48430619 1.2451797
1.5076405 0.48284912 1.2491826
1.8787125 0.49349529 1.2445589
0.39444476 0.45342278 1.2567737
1.0226032 0.48510525 1.253163
1.0955061 0.48414889 1.2501242
1.1849656 0.48833406 1.2594382
1.3621018 0.49043199 1.2565528
1.4607068 0.49225834 1.254604
