# .PCD v0.7 - Point Cloud Data file format
VERSION 0.7
FIELDS x y z
SIZE 4 4 4
TYPE F F F
COUNT 1 1 1
WIDTH 652
HEIGHT 1
VIEWPOINT 0 0 0 1 0 0 0
POINTS 652
DATA ascii
0.32630134 -2.4626782 -1.2612399
0.76749009 -2.4508848 -1.1751575
-0.46415994 -2.4719388 -1.1671668
-0.39056951 -2.4666562 -1.1592518
0.50891924 -2.4499693 -1.1321647
0.29974207 -2.4619164 -1.0234458
2.2707796 -2.4015591 -1.0293194
2.3690374 -2.4008594 -1.0231797
0.31680697 -2.4611673 -1.0178292
0.35038033 -2.4578347 -1.0049483
0.62561399 -2.4388359 -1.0011013
2.3314505 -2.4044693 -1.0072249
0.29067767 -2.4475892 -0.99379754
0.34106341 -2.4527724 -0.97935021
0.35642576 -2.4455466 -0.970532
0.62982279 -2.4462912 -0.97105742
2.2560029 -2.4094095 -0.97519934
2.3490341 -2.4048636 -0.96592867
2.216229 -2.4085925 -0.95831627
0.27587691 -2.4449604 -0.94538641
0.29191533 -2.4470122 -0.94122058
0.34740037 -2.4448278 -0.94701999
0.61523664 -2.4459767 -0.94943255
0.71109867 -2.4492345 -0.94562531
2.3060029 -2.4023473 -0.94854295
0.3073172 -2.4444003 -0.93506229
0.63199496 -2.4489839 -0.93944418
2.2651601 -2.4013307 -0.93204141
0.23747768 -2.4424341 -0.92974544
2.3699408 -2.4094384 -0.9258616
0.68984938 -2.4310105 -0.91842741
2.2290602 -2.4047258 -0.91745603
0.24709092 -2.4505308 -0.90496522
0.31489629 -2.4471202 -0.90745664
0.63188535 -2.4459438 -0.90612131
2.3245754 -2.4048631 -0.90844744
0.34594801 -2.4531474 -0.89797467
0.26109222 -2.4403808 -0.89702785
0.64792758 -2.4489806 -0.89576757
0.2555055 -2.4546788 -0.87875456
0.50021952 -2.44243 -0.87107766
2.2457469 -2.4058645 -0.87818801
0.64421457 -2.4374073 -0.86001754
2.2036691 -2.4023056 -0.86203587
2.3351028 -2.3996816 -0.86529881
0.23278232 -2.4402716 -0.85506517
0.26167646 -2.4453881 -0.84815484
0.63047487 -2.444597 -0.84243149
2.2897396 -2.3944039 -0.84878796
0.24092603 -2.4496398 -0.8310672
0.3037003 -2.4450581 -0.83317745
0.25434828 -2.4460459 -0.82560104
0.26838455 -2.4490943 -0.82199365
0.64373994 -2.4412107 -0.82992417
0.5974263 -2.4299557 -0.82875007
2.2207077 -2.4049077 -0.8236624
2.3516033 -2.4015222 -0.82437253
0.20682694 -2.4477854 -0.8153553
0.34522027 -2.4466639 -0.81648695
0.33010894 -2.4360378 -0.81911069
2.3159702 -2.4068696 -0.81210303
0.21984088 -2.4422734 -0.80993307
0.30797771 -2.4402494 -0.80399483
0.20087507 -2.4498966 -0.79314268
0.33516732 -2.4444933 -0.7939077
0.25916129 -2.435271 -0.79520738
0.27236322 -2.4354815 -0.79059798
2.2671745 -2.3974814 -0.79530132
0.21301638 -2.4386487 -0.78613317
0.22603685 -2.4388497 -0.78236693
2.2298779 -2.3996103 -0.78245914
0.25199518 -2.4402168 -0.77439553
0.23862679 -2.4352396 -0.7772153
2.199229 -2.4084916 -0.77190584
0.33798304 -2.4423165 -0.76559079
2.3248274 -2.4016707 -0.76928794
0.2189174 -2.4359398 -0.75908023
0.30207995 -2.4344234 -0.75307852
0.7219556 -2.4330907 -0.75377542
2.2744539 -2.3908129 -0.75292063
0.32774901 -2.4406183 -0.74364388
0.18788794 -2.4390965 -0.74467397
0.20009707 -2.4383395 -0.7410782
0.26854256 -2.4348824 -0.74158835
0.28158715 -2.4418023 -0.73867595
0.34009752 -2.4408629 -0.73774898
0.60540897 -2.4386086 -0.73040527
0.63209951 -2.4308071 -0.73545915
2.23435 -2.3900096 -0.7398901
0.23615906 -2.434175 -0.72840405
0.30550107 -2.4384437 -0.72727621
0.34271914 -2.4487493 -0.71271944
0.27194312 -2.4338861 -0.71480608
0.28409252 -2.4369955 -0.71070272
2.2990704 -2.4034154 -0.71605307
0.25267822 -2.442781 -0.70026034
0.2403975 -2.4358263 -0.70277286
0.29561427 -2.4353166 -0.70507008
2.2513299 -2.3948088 -0.70145738
0.2640245 -2.4410887 -0.69520682
0.33163437 -2.4456549 -0.6909644
0.60006082 -2.4337633 -0.69987655
0.30655679 -2.4298077 -0.69819701
2.2157595 -2.3985763 -0.69058239
0.17068364 -2.4495323 -0.68046671
0.29867876 -2.445657 -0.68130249
0.21025173 -2.4394975 -0.68988585
0.27431214 -2.4307506 -0.68766159
2.3443358 -2.3955545 -0.68463117
0.30969104 -2.4439869 -0.67540646
0.2034678 -2.4434094 -0.66900706
0.33192101 -2.44451 -0.66398525
0.26543146 -2.4319658 -0.66674006
0.27641302 -2.432209 -0.66194332
0.32022491 -2.4394391 -0.66857207
0.1642759 -2.4426074 -0.65655267
0.18601143 -2.4469063 -0.65144968
0.23624049 -2.4440866 -0.65743864
0.28867418 -2.4440217 -0.65984762
0.25787807 -2.4455278 -0.64894539
0.19598246 -2.4384122 -0.64596951
0.30864745 -2.4310462 -0.64585
2.188978 -2.3987331 -0.64008301
0.21751291 -2.4437041 -0.639898
0.2277301 -2.4410322 -0.63526833
0.2377678 -2.437397 -0.63021922
0.28852573 -2.4366226 -0.63201118
0.59877998 -2.427474 -0.6305998
0.24849141 -2.4415121 -0.62683177
0.29927602 -2.4397833 -0.62745756
0.63815814 -2.431154 -0.62578201
0.2692996 -2.4449179 -0.61829871
0.31996879 -2.4412944 -0.61659688
0.48317552 -2.4297342 -0.61029816
0.23915182 -2.4372652 -0.60482913
0.28838116 -2.435761 -0.60607517
0.32870018 -2.4309516 -0.60829657
0.71279293 -2.4181728 -0.60552776
2.2320676 -2.3916152 -0.60972756
0.21140714 -2.4410522 -0.59274554
0.25958893 -2.4445632 -0.5974741
0.31885892 -2.443372 -0.59125102
0.26852259 -2.437062 -0.59099865
0.29762721 -2.4302237 -0.59948802
0.60452133 -2.4374721 -0.59441519
0.22151129 -2.4461558 -0.58998293
0.28848165 -2.4434249 -0.58228767
0.2303163 -2.4376512 -0.58401388
0.27798033 -2.4353888 -0.58566242
0.32677257 -2.4301093 -0.58241338
0.6135602 -2.4340966 -0.58256298
0.63761592 -2.4196589 -0.5837937
0.20331167 -2.4412348 -0.57165611
0.25901169 -2.4413414 -0.57149839
0.6744833 -2.4158962 -0.57450521
6.5583563 -2.2864785 -0.57770383
0.15915127 -2.4422278 -0.56359404
2.2401619 -2.3892424 -0.56942153
0.17729206 -2.4417102 -0.55744189
0.18654731 -2.444875 -0.55482066
0.24860097 -2.4366601 -0.55015326
2.2016091 -2.3895504 -0.55980933
0.15269819 -2.4439502 -0.54248703
0.26687172 -2.4411068 -0.54164535
0.21277736 -2.4387779 -0.54269475
0.30358896 -2.4320574 -0.54382944
0.61334348 -2.4297154 -0.54358172
0.27559066 -2.4404166 -0.53653657
0.22986746 -2.4344141 -0.53373623
0.31174213 -2.4265258 -0.53705388
0.62127143 -2.4254115 -0.5314151
0.28343832 -2.4329126 -0.52990073
0.33013818 -2.43396 -0.52675664
0.71312779 -2.4215472 -0.52514839
0.59247053 -2.418488 -0.52606726
2.2155056 -2.3944867 -0.52161258
0.27314678 -2.4416711 -0.51207525
0.60502934 -2.4342017 -0.51826251
0.23729628 -2.4386334 -0.50581545
0.24519287 -2.4359806 -0.50087339
0.31636447 -2.4253771 -0.50633627
0.32501808 -2.4286273 -0.50103575
0.26186478 -2.4414539 -0.49253425
0.61911786 -2.4227438 -0.49362046
0.17898168 -2.4411371 -0.48471847
0.21901727 -2.4359646 -0.48949766
0.60265946 -2.4322841 -0.48121816
0.30403113 -2.4272919 -0.48805138
2.2603097 -2.3910651 -0.48979968
0.25030643 -2.4380908 -0.4725146
0.2841112 -2.4296637 -0.47523305
0.21699682 -2.4385467 -0.46597552
0.3041212 -2.4378231 -0.46299285
0.60931075 -2.4270353 -0.4691405
0.23531024 -2.436327 -0.45507565
0.28027362 -2.4383669 -0.45282942
0.58867908 -2.4200904 -0.45415071
0.61502802 -2.4189289 -0.45645818
0.2140571 -2.4389777 -0.44231552
0.32556745 -2.432518 -0.44450313
0.30857629 -2.4358258 -0.43042013
0.60159874 -2.4124777 -0.43094715
2.1871603 -2.3873675 -0.43372726
0.31466949 -2.4293315 -0.42355603
0.21697341 -2.4385347 -0.41478011
0.28742379 -2.4299312 -0.41736287
0.32427138 -2.4249973 -0.4138833
0.47754189 -2.4295795 -0.41502523
0.13220774 -2.4251869 -0.40552393
0.61659819 -2.4164164 -0.40913966
0.1509147 -2.4210198 -0.39695549
0.31358084 -2.4294536 -0.39469543
0.71312064 -2.423141 -0.38378268
0.29949096 -2.433531 -0.37848687
0.14819457 -2.4196208 -0.37395999
0.68992192 -2.4157259 -0.37196234
0.26480204 -2.4328434 -0.35005078
0.59765255 -2.4246452 -0.35310066
0.30120352 -2.4278054 -0.34427565
0.60074776 -2.4136705 -0.34054947
6.5404973 -2.2743516 -0.34512806
0.17407346 -2.4176774 -0.33429354
0.15092854 -2.4208026 -0.32358795
0.60646904 -2.4142714 -0.32944098
0.20422065 -2.4162254 -0.31215647
0.28076118 -2.4319119 -0.30238754
0.30663568 -2.4322724 -0.30620688
0.59016967 -2.4101081 -0.30757168
-0.13682021 -2.4270008 -0.29691863
0.47216693 -2.4203186 -0.2951057
0.18896474 -2.4154785 -0.29649341
0.22069472 -2.4140658 -0.29748574
0.32913676 -2.4268165 -0.27510402
0.18286979 -2.4192328 -0.27402008
0.2111707 -2.4153805 -0.27688605
0.28636962 -2.430645 -0.26021698
0.15572399 -2.419023 -0.268177
0.14396623 -2.4243438 -0.25074542
0.13976383 -2.4170425 -0.25295761
0.2027787 -2.4142408 -0.25447348
0.22750953 -2.4120917 -0.25932932
-0.14601085 -2.4224906 -0.24646714
0.14754941 -2.4217074 -0.24758424
0.15481363 -2.4204366 -0.24138322
0.1508359 -2.4151008 -0.24401358
0.59325719 -2.4151478 -0.24385665
0.15811814 -2.4158356 -0.23784247
0.22306547 -2.4111998 -0.23095994
0.47334117 -2.4163229 -0.23974043
0.17240997 -2.4213855 -0.22492218
0.14172323 -2.4186068 -0.22401169
0.20056598 -2.4147973 -0.22494394
6.5238161 -2.2666399 -0.22938715
0.15180326 -2.4237309 -0.21538407
0.14795929 -2.4133875 -0.21768607
0.17891492 -2.4192424 -0.21764211
0.23533019 -2.4138918 -0.21520421
0.15802452 -2.4225454 -0.20894553
0.16209531 -2.4147136 -0.20345585
0.18806031 -2.4136131 -0.20605899
0.21384831 -2.4156764 -0.20836547
0.70340198 -2.414947 -0.20012285
0.13781567 -2.4217136 -0.19871433
0.1437037 -2.4248481 -0.19303346
0.16933055 -2.4123228 -0.19478025
0.19682053 -2.4100628 -0.19407748
0.22444241 -2.4144728 -0.19284157
0.24647909 -2.4137347 -0.19839746
0.58439279 -2.4079332 -0.19182353
0.15148264 -2.4168267 -0.18330245
0.17823519 -2.4186943 -0.18446013
0.18039812 -2.4112165 -0.18029743
0.58858466 -2.4125617 -0.18117762
0.70493078 -2.4089978 -0.18664546
0.18632631 -2.420182 -0.17327882
0.13391207 -2.4181662 -0.1710403
0.18316142 -2.4127078 -0.17664061
0.59167427 -2.4133222 -0.17018549
0.14133027 -2.4224966 -0.16248253
0.16450939 -2.4201517 -0.1669652
0.16682573 -2.4186561 -0.16341223
0.18868545 -2.4177129 -0.16926636
0.19082801 -2.4132643 -0.165095
0.21734801 -2.4140425 -0.16263974
0.2627427 -2.4072683 -0.16745709
0.1458506 -2.4219489 -0.15630507
0.14542918 -2.4144671 -0.15594231
0.16895197 -2.4151785 -0.15970452
0.17129955 -2.4156966 -0.15616515
0.19822451 -2.4169068 -0.15323725
0.31416529 -2.4058428 -0.15817855
0.15017939 -2.4204359 -0.14993228
0.15196981 -2.4149623 -0.14643659
0.17591433 -2.4177618 -0.14898749
0.20372531 -2.4168706 -0.1428427
0.25111005 -2.4116895 -0.14220126
0.17745924 -2.4093475 -0.14486144
0.22508256 -2.4091549 -0.14658174
0.13559389 -2.4255338 -0.13364053
0.15627481 -2.4180045 -0.13999063
0.16027221 -2.4190977 -0.13326865
0.18385406 -2.4130626 -0.13364737
0.20663746 -2.4142938 -0.13635744
0.23090878 -2.4147067 -0.13520756
0.15771841 -2.4095733 -0.13624656
0.25492114 -2.4080451 -0.13180135
0.29880279 -2.4061542 -0.13758145
0.05635377 -2.411833 -0.12834704
0.13894093 -2.4195969 -0.12739682
0.16173968 -2.4126825 -0.12954374
0.18871996 -2.4150784 -0.12393878
0.25914672 -2.4114058 -0.12155937
0.16415955 -2.4080677 -0.12410945
0.27887237 -2.4078805 -0.12952904
0.14409216 -2.41926 -0.1180833
0.1703479 -2.4116871 -0.1117018
0.19233638 -2.4163456 -0.11597607
0.21618429 -2.4165237 -0.1145546
0.23928834 -2.4137514 -0.11353606
0.14505258 -2.4078648 -0.11448528
0.21386348 -2.4098816 -0.11874399
6.519258 -2.2639489 -0.11457943
0.15188418 -2.4202604 -0.10188447
0.15020756 -2.4166448 -0.10507785
0.17434153 -2.4137957 -0.10253118
0.19564563 -2.4166656 -0.107823
0.22083594 -2.4146266 -0.10089754
0.24251661 -2.4131885 -0.10365973
0.28582084 -2.4048214 -0.10677458
0.30898628 -2.4047322 -0.10430612
0.69275951 -2.3951201 -0.10362379
0.17773828 -2.4119909 -0.093028329
0.2003253 -2.4106202 -0.093024231
0.22246191 -2.4163425 -0.096360415
0.26728597 -2.4100952 -0.094874248
0.46863288 -2.4118581 -0.099679403
0.17596446 -2.4063225 -0.096647568
0.1986295 -2.4069233 -0.097108819
0.31116202 -2.4034193 -0.09502247
0.15828054 -2.4175725 -0.084769003
0.18136948 -2.4101305 -0.081404001
0.20180063 -2.4123375 -0.088840328
0.24808317 -2.4122179 -0.083540387
0.15657407 -2.4099054 -0.088014416
0.17928024 -2.4065619 -0.087113023
0.20255733 -2.4060981 -0.084396645
0.24650399 -2.4094574 -0.088520564
0.26942831 -2.4046943 -0.083839953
0.2914772 -2.4085202 -0.08664725
2.4931507 -2.3641026 -0.088633217
0.069202237 -2.4131012 -0.076728702
0.16151433 -2.4157116 -0.07417731
0.18308742 -2.4178436 -0.07769262
0.24938786 -2.4130025 -0.078470133
0.2725558 -2.4112694 -0.073047265
0.16185613 -2.4054739 -0.070382103
0.18326436 -2.4056315 -0.073451966
0.20520142 -2.4095976 -0.075893097
0.22733508 -2.406806 -0.075071305
0.2497047 -2.4048495 -0.073144861
0.2942009 -2.4055872 -0.071890362
0.69738007 -2.4006963 -0.07800138
0.16423619 -2.4129689 -0.063368767
0.20815679 -2.4140472 -0.065098897
0.22970685 -2.4149654 -0.068158835
0.25244111 -2.411458 -0.063014038
0.27458578 -2.4109428 -0.061960477
0.16306949 -2.4092147 -0.066890255
0.31750172 -2.4045525 -0.063798286
0.1876568 -2.4137378 -0.057674583
0.20958737 -2.4147618 -0.058509853
0.23147196 -2.4136167 -0.058556907
0.16557994 -2.4082179 -0.056011848
0.18813901 -2.4095669 -0.053558107
0.2095474 -2.4046299 -0.053896699
0.25385115 -2.4081748 -0.052574974
0.70171303 -2.4082496 -0.052207597
0.14627084 -2.410567 -0.043892082
0.16845736 -2.4144018 -0.043243319
0.18940561 -2.4163752 -0.049615432
0.21123394 -2.4154315 -0.049646124
0.23276486 -2.4103308 -0.048856892
0.14612961 -2.4085772 -0.043857932
0.18938623 -2.4072466 -0.04539936
0.21132542 -2.4047637 -0.042792533
0.27644238 -2.4055862 -0.04511423
0.29853162 -2.4049392 -0.042139195
0.32025567 -2.4061871 -0.044806574
0.14857164 -2.4149582 -0.030570986
0.25636458 -2.4127989 -0.036961731
-0.031729583 -2.4086642 -0.036810201
0.14730033 -2.4092422 -0.03721869
0.16918746 -2.4055781 -0.03383144
0.2128915 -2.4069705 -0.031623911
0.23365927 -2.4030659 -0.036636971
0.25645906 -2.4087319 -0.031658716
0.27719069 -2.4064772 -0.039518856
0.29926479 -2.4017975 -0.030104283
0.32116348 -2.4060607 -0.035232842
0.58654362 -2.4015443 -0.033094566
0.17115267 -2.4213135 -0.026499026
0.14934789 -2.4157424 -0.023820464
0.19227159 -2.4167244 -0.029092103
0.21401519 -2.4128213 -0.024920214
0.17052212 -2.407259 -0.022626378
0.23429827 -2.4019303 -0.029329522
0.25706708 -2.4086261 -0.023761228
0.27881789 -2.4082386 -0.022635888
0.30052716 -2.4086835 -0.024153946
0.14966874 -2.411581 -0.017016327
0.15007634 -2.4134917 -0.011926675
0.17129537 -2.4141665 -0.018908413
0.19319013 -2.4144807 -0.014564466
0.23536173 -2.402741 -0.014689903
0.25710079 -2.4045691 -0.015829198
0.27898908 -2.4051757 -0.01131299
0.15075904 -2.4214184 -0.0068350993
0.15033965 -2.4134128 -0.0034095468
0.17199327 -2.415 -0.003787512
0.19324958 -2.4114213 -0.0062390212
0.21541618 -2.4175999 -0.0045454614
0.25804147 -2.4104815 -0.0052894889
0.30084959 -2.4056034 -0.0060367077
0.1505457 -2.4164004 0
0.17197582 -2.4150045 0.0037863159
0.19324961 -2.4114213 0.0062383367
0.21519095 -2.4152803 0.0045434795
0.23689461 -2.415626 0.004920369
0.25814599 -2.4114759 0.0052913134
0.23621166 -2.4096744 0.0098191705
0.25797623 -2.4094799 0
0.27961195 -2.4091225 0
0.3220081 -2.4008944 0
0.19352838 -2.4174476 0.012497511
0.21460392 -2.4126978 0.015874341
0.17090458 -2.405127 0.015089854
0.25771463 -2.4085128 0.010570071
0.27922875 -2.4091842 0.016988877
0.30083391 -2.4066164 0.012075829
0.1704603 -2.4113381 0.026414014
0.1920732 -2.4116955 0.026977926
0.2355517 -2.4108136 0.024530113
0.25743175 -2.4121068 0.023790386
0.27866068 -2.4102871 0.02830166
0.17059152 -2.4082565 0.022633672
0.21331528 -2.4068816 0.02712412
0.27859205 -2.4062514 0.022620095
0.30040559 -2.407691 0.024145447
0.21292073 -2.4130502 0.036186844
0.23452999 -2.415062 0.039223831
0.25666699 -2.4107211 0.031680569
0.16892523 -2.4086938 0.037600245
0.19088207 -2.4079127 0.035178684
0.25584584 -2.4078264 0.036898039
0.29948947 -2.4078281 0.036181394
0.67438585 -2.3901558 0.037698183
-0.20611826 -2.4205558 0.049859948
0.2119824 -2.4162891 0.045193136
0.1674841 -2.4050097 0.044955693
0.1893574 -2.4072533 0.045392446
0.27644238 -2.4055862 0.04511423
0.16535573 -2.4167364 0.059818674
0.20941752 -2.4127696 0.058470644
0.23229536 -2.41346 0.053740051
0.27547547 -2.4107997 0.056387927
0.165619 -2.4085457 0.056024335
0.18798612 -2.4075732 0.053522814
0.23109692 -2.4096348 0.058477193
0.25364524 -2.4061856 0.052538667
0.27594581 -2.4076893 0.050745077
0.29743162 -2.4081354 0.054148093
0.31926212 -2.4043069 0.051132154
0.18659101 -2.399781 0.057408851
0.25200522 -2.3983727 0.057571255
0.16456974 -2.4179568 0.063470744
0.20871097 -2.4149451 0.062923975
0.16306949 -2.4092147 0.066890255
0.18397553 -2.4014075 0.069403693
0.22930309 -2.4054174 0.065558456
0.25126249 -2.4096389 0.068131313
0.27414131 -2.4069686 0.061874077
0.29656416 -2.4082651 0.06010643
0.25111192 -2.3985293 0.062731512
0.18256813 -2.4108653 0.077513814
0.22775081 -2.4112854 0.075186163
0.162054 -2.4084666 0.070450231
0.18333897 -2.4066284 0.07347621
0.2057624 -2.4033976 0.071405098
0.25021183 -2.4098222 0.073271297
0.31597832 -2.4052696 0.07326296
0.69655764 -2.3978124 0.077914938
-0.21481901 -2.420831 0.081153929
0.15808789 -2.4145799 0.084687233
0.20368832 -2.4124489 0.082429327
0.15858819 -2.4043038 0.080931082
0.18129577 -2.4091337 0.081377171
0.22414948 -2.4048817 0.086736344
0.26942831 -2.4046943 0.083839953
0.29005405 -2.4021671 0.089366607
0.31335396 -2.4041224 0.085729592
0.2247448 -2.3976777 0.081868105
0.17717502 -2.4136429 0.094979048
0.223388 -2.4111032 0.091569223
0.2000812 -2.4076316 0.092930533
0.26568884 -2.4022646 0.097302616
0.24415705 -2.3997483 0.093237199
0.69572103 -2.3998239 0.090907924
5.2365584 -2.286828 0.092189826
0.17416525 -2.4113035 0.1024452
0.21923399 -2.4139192 0.10543358
0.22047803 -2.410645 0.10076014
0.049929637 -2.4060669 0.10512802
0.19563422 -2.4068773 0.10540491
0.21721359 -2.4092426 0.1097846
0.24173079 -2.4052322 0.10337372
0.28570491 -2.4038286 0.10673692
0.66900396 -2.3914959 0.10028517
0.69275951 -2.3951201 0.10362379
0.19142286 -2.4155245 0.11796439
0.16660744 -2.4054701 0.11869085
0.2831676 -2.4042091 0.11529113
0.30446467 -2.4033461 0.11948615
0.66726112 -2.3916118 0.11272334
0.16334854 -2.4092698 0.12591787
0.23383607 -2.4040854 0.12522522
0.27853337 -2.4049029 0.12939209
0.32666814 -2.4011841 0.12004668
0.57632816 -2.4013371 0.12061325
0.68785381 -2.3915207 0.12910135
0.25310668 -2.410358 0.1370434
-0.22529498 -2.4077811 0.13723604
0.32230115 -2.4062891 0.13626415
0.10326318 -2.3991985 0.13930245
0.29988933 -2.3979347 0.13124329
0.20123327 -2.4127958 0.14682597
0.24822828 -2.4050851 0.14690819
0.27248296 -2.4078276 0.14607871
0.31846836 -2.4022582 0.14552687
0.68509114 -2.3897414 0.14175464
0.17220229 -2.4124744 0.15418994
0.26809978 -2.4105012 0.15703323
0.27011439 -2.4071732 0.1514703
0.31523433 -2.404696 0.15501082
0.19298309 -2.409822 0.16093916
0.26420778 -2.4090662 0.16492444
0.18316142 -2.4127078 0.17664061
0.23654836 -2.4099989 0.17165819
0.28408578 -2.4041789 0.17217731
0.65551108 -2.3923945 0.17432375
0.20246436 -2.4090743 0.18588726
0.25204551 -2.4098787 0.18818903
0.30245543 -2.4093876 0.18569124
0.65281695 -2.3935547 0.18656863
0.46480188 -2.388907 0.18456496
0.26951137 -2.4031971 0.1995315
0.29453847 -2.4063995 0.20015328
0.1782614 -2.4102914 0.21696538
0.23624451 -2.406203 0.21227922
0.28806591 -2.4062414 0.21158093
0.24587263 -2.403491 0.23523708
0.32471251 -2.4067883 0.23537953
0.68771189 -2.3983574 0.2373569
5.3455434 -2.2825599 0.28250319
0.46177164 -2.3914282 0.3006371
-0.2517049 -2.403476 0.33586115
2.4490223 -2.3436735 0.35045043
0.55476284 -2.3756239 0.39935592
-0.26012644 -2.3984215 0.42992267
0.55253577 -2.3768282 0.44344726
5.0809245 -2.2795269 0.44844532
0.58794904 -2.3720367 0.47013304
0.54870749 -2.3836715 0.48934567
0.58150953 -2.3782527 0.4820298
0.450376 -2.3883846 0.4987483
0.57167417 -2.3710911 0.49125203
0.44668579 -2.377038 0.52953637
5.0533886 -2.2708936 0.53583628
0.60754263 -2.3719351 0.5576514
0.5377441 -2.3801303 0.56956387
0.50108474 -2.372504 0.5702585
0.60526413 -2.3705974 0.59510785
0.57101727 -2.381664 0.60283709
0.5331952 -2.375483 0.60469276
0.56052381 -2.3803275 0.61280972
0.58565789 -2.3735793 0.61747772
0.4418197 -2.3741994 0.62225312
0.51088816 -2.3671398 0.6216715
5.0415425 -2.270153 0.62450773
0.45495674 -2.3705628 0.63968658
0.44470409 -2.3731015 0.64848846
2.7393277 -2.3151839 0.64254642
5.2829428 -2.269675 0.65414792
0.4577218 -2.3702121 0.66640574
2.4221742 -2.3361752 0.66066647
0.52000242 -2.3714068 0.67712104
0.44612533 -2.3679984 0.67399484
0.43701148 -2.3800583 0.68520284
0.58449858 -2.369864 0.68259293
0.4492642 -2.3759918 0.70336825
5.0344768 -2.2723291 0.71381235
0.60399896 -2.3688455 0.72878325
0.4376955 -2.3749342 0.73862141
2.7096679 -2.3104215 0.73770022
0.59270203 -2.3731771 0.74082679
5.2462978 -2.2590113 0.74358183
0.44983301 -2.373291 0.75804543
0.50004929 -2.3694656 0.75100625
0.46180734 -2.3704906 0.77720839
0.55470639 -2.3740871 0.77205884
0.50152957 -2.3736539 0.78085488
0.43710175 -2.3793542 0.79605359
0.51562101 -2.3769388 0.80174625
0.43464679 -2.3760643 0.82348144
2.6907368 -2.3179252 0.83579755
0.44599116 -2.3746843 0.84394723
0.47168705 -2.3723948 0.85595709
0.45700151 -2.3712175 0.86381042
0.42745095 -2.3698132 0.87901503
0.42384338 -2.3733349 0.90945345
0.438775 -2.3717048 0.90123969
0.58286357 -2.3720315 0.90143752
2.7016547 -2.3128493 0.94490486
2.3843677 -2.3147354 0.98020434
2.6799324 -2.3086591 0.99080652
5.1681123 -2.2450452 1.0131656
5.6846161 -2.2294574 1.0101653
2.6567378 -2.3038454 1.0359527
5.1399255 -2.2408156 1.1018809
5.6982231 -2.2424278 1.1162088
5.0167804 -2.2485211 1.1683378
5.1236496 -2.2425807 1.1930106
2.4257026 -2.3056214 1.2028209
4.9966888 -2.2491112 1.256701
5.0870981 -2.235985 1.2792424
5.0473566 -2.2286055 1.364082
6.3472981 -2.1777816 1.9537205
6.3128819 -2.1550999 2.439415
6.2718043 -2.1411374 2.943608
6.2424054 -2.1217713 3.3402719
6.2092195 -2.1071634 3.7540522
6.1517715 -2.0723722 4.4959741
1.5176505 -2.1727104 4.7136455
1.4302928 -2.1649179 4.7213111
2.4270976 -2.1395519 4.8035426
2.6500678 -2.1313782 4.8202071
2.8801684 -2.1234472 4.8319778
3.1261883 -2.121562 4.8516479
3.3869851 -2.1234436 4.8739777
3.6499813 -2.1206317 4.8796272
4.1018014 -2.1062176 4.9228082
4.5888076 -2.0907896 4.9538045
5.3549209 -2.0666189 5.0242343
