# .PCD v0.7 - Point Cloud Data file format
VERSION 0.7
FIELDS x y z
SIZE 4 4 4
TYPE F F F
COUNT 1 1 1
WIDTH 587
HEIGHT 1
VIEWPOINT 0 0 0 1 0 0 0
POINTS 587
DATA ascii
1.5459055 -0.045535184 -1.1082656
0.30082941 0.18526377 -1.0923736
0.3170718 0.18492177 -1.0801289
0.27722266 0.19088855 -1.0780758
0.29605243 0.19214052 -1.0757143
0.27706218 0.20040242 -1.0774767
0.29615173 0.20185384 -1.0760605
0.3125844 0.19206832 -1.0654513
0.3312948 0.19331251 -1.0624181
1.9447992 -0.11428965 -1.0551943
0.44932356 0.15394373 -1.0503068
0.43065152 0.17248257 -1.0559741
1.8522944 -0.1087351 -1.04856
0.60238361 0.13579547 -1.0411073
0.49123195 0.15731719 -1.0476204
0.3843354 0.16685101 -1.043239
0.40620226 0.16925184 -1.0471091
0.44708392 0.1727853 -1.0452765
1.9950317 -0.13612384 -1.0369489
0.52806365 0.13934791 -1.0328759
0.5070051 0.14766999 -1.0351489
0.52802563 0.14927225 -1.0328044
0.55399472 0.14191964 -1.0387908
0.50783354 0.15777633 -1.0367748
0.52654856 0.15883859 -1.0300264
0.55057532 0.1512077 -1.0326221
0.42302811 0.16011751 -1.0380145
0.44035661 0.16083775 -1.0301666
0.48416758 0.16513288 -1.0331364
2.2587917 -0.17521101 -1.023982
2.1515129 -0.16690828 -1.0222847
2.0617499 -0.14008866 -1.0253093
0.57085967 0.13243507 -1.0277292
0.57185006 0.14270774 -1.0294446
0.46099547 0.15295222 -1.0293918
0.46048397 0.16246611 -1.0282949
0.61082143 0.13483575 -1.0156808
0.67162418 0.12641796 -0.9608171
2.210382 -0.1878273 -0.90990961
0.66102338 0.11220521 -0.88153183
0.68949103 0.11454596 -0.8864221
2.2488635 -0.18993561 -0.8793844
0.58479166 0.13779442 -0.81198329
0.45078838 0.15560083 -0.73189342
0.49992931 0.1418267 -0.67534083
0.49442595 0.147726 -0.66829681
0.8562271 0.073364332 -0.64853573
0.88741988 0.074692897 -0.64718902
0.43923551 0.14921691 -0.61882383
2.230593 -0.19924843 -0.60933244
0.67079073 0.1110819 -0.59178573
0.42987251 0.15082133 -0.5856722
2.2464743 -0.19967896 -0.57099545
0.66425389 0.10975119 -0.56622159
0.51240432 0.12837112 -0.56298047
0.53058809 0.12395303 -0.56240791
0.51042032 0.13452606 -0.56092602
0.53420573 0.13128076 -0.56602556
0.55414534 0.13378914 -0.56639153
0.67432547 0.11032727 -0.55454552
0.54333723 0.12511286 -0.55595428
0.52656937 0.13647798 -0.55838919
0.54137778 0.13814184 -0.55406213
0.41957724 0.14587924 -0.55310631
0.43862471 0.15539689 -0.55720454
0.69216895 0.1117641 -0.54866838
0.54950804 0.12516601 -0.54311448
0.44063476 0.14795071 -0.54085422
1.3486724 -0.021062514 -0.53383338
0.53883177 0.1364557 -0.53315866
0.54382265 0.13080557 -0.53781277
0.44804758 0.15421326 -0.53104877
2.2500932 -0.19886844 -0.52959776
0.54743278 0.13042247 -0.52302158
0.40820411 0.15524308 -0.52095068
0.43484384 0.15441793 -0.52519751
1.2903552 -0.0062548853 -0.51144749
0.53845203 0.12240614 -0.51493531
0.53500843 0.13462037 -0.51183468
0.40169969 0.16460964 -0.51319909
0.49444973 0.13509783 -0.50874418
0.52918708 0.1398643 -0.50659305
0.54333419 0.13514078 -0.50183588
0.49692109 0.13445598 -0.49407634
0.53592938 0.14008909 -0.49539897
2.248116 -0.19754864 -0.48720783
0.54694295 0.13481581 -0.48786506
0.43816501 0.14532465 -0.48610345
0.43603706 0.15609913 -0.48389989
0.40698695 0.16495275 -0.4854463
0.41826859 0.16105056 -0.48144907
1.2715687 -0.0049677496 -0.47820407
0.49911693 0.13981695 -0.47951779
0.54644316 0.13691995 -0.47082034
0.44218975 0.14490829 -0.47400957
0.44280672 0.15639448 -0.47462654
0.55638379 0.13469091 -0.46239939
0.40165254 0.15051006 -0.46363053
0.41719976 0.15891741 -0.46439329
0.44346955 0.14385301 -0.45951319
0.47641945 0.14072245 -0.45908087
0.43991497 0.1512443 -0.45608056
0.44056177 0.15697525 -0.45670518
2.2668519 -0.19854186 -0.44921777
0.44938463 0.13573559 -0.44974789
0.54806823 0.13238557 -0.44008073
0.43936974 0.14697143 -0.44040883
0.43862787 0.13866267 -0.43971705
0.53789681 0.1365968 -0.43241602
2.2702792 -0.19798064 -0.40812564
0.14218897 0.21025725 -0.3936533
0.11213963 0.20685859 -0.38792783
0.13287228 0.20913748 -0.38815525
0.10226262 0.20306592 -0.37751967
0.11559041 0.20742272 -0.37824726
0.12386536 0.20579284 -0.37340999
0.13590257 0.20571248 -0.37809393
0.14030203 0.20054106 -0.37195358
0.15589403 0.20696989 -0.37509969
2.2769198 -0.19785102 -0.36766821
0.15199396 0.19636217 -0.36673594
0.086526342 0.20857175 -0.36638737
0.092504561 0.20810859 -0.3658585
0.1033 0.20690577 -0.36072224
0.98046535 0.033498921 -0.35225186
0.97955728 0.042548336 -0.35193917
0.13629894 0.1939958 -0.35472512
0.086591616 0.20670965 -0.355573
0.095733583 0.20990127 -0.35616416
0.10277561 0.20981558 -0.35910836
0.11522108 0.2098909 -0.35885346
0.12355866 0.2046458 -0.35825801
0.13945003 0.20834851 -0.35431945
0.11404678 0.21180825 -0.35562712
0.12555419 0.21232352 -0.3524808
0.12478568 0.19667196 -0.34542888
0.13364026 0.19485354 -0.34127051
0.079892591 0.20829852 -0.34162986
0.0995946 0.20756008 -0.34931821
0.1071545 0.20790249 -0.34500104
0.11641017 0.20746852 -0.34526998
0.12824719 0.2070829 -0.34355417
0.13487612 0.20591652 -0.34404626
0.14190543 0.20324624 -0.34510103
0.090003088 0.20927109 -0.33742055
0.11653931 0.20757106 -0.33773988
0.12637872 0.20433712 -0.33915231
0.13538581 0.20484266 -0.33571059
0.14896522 0.20607325 -0.33245602
0.96433467 0.033948835 -0.32723707
0.96437138 0.042797543 -0.32724902
0.9624325 0.051628798 -0.32661906
0.10265028 0.19931041 -0.32431549
0.080665343 0.20979877 -0.32457024
0.11616676 0.20508039 -0.32202506
0.13536792 0.20462376 -0.32447192
0.14432032 0.20580909 -0.32333988
0.094212651 0.21260399 -0.32415247
0.11354118 0.19722524 -0.31562877
0.1054579 0.20000854 -0.31673834
0.12902422 0.20978877 -0.3174772
0.084262982 0.21437752 -0.29447138
0.067210212 0.21320486 -0.2496493
0.080821119 0.2180468 -0.24176258
2.0612299 -0.17308384 -0.22134778
0.050849311 0.20680402 -0.2205894
0.057447918 0.21546242 -0.22706471
0.061387762 0.2168711 -0.22083133
0.062624678 0.2083405 -0.21434607
0.072198957 0.20892729 -0.2115128
0.049186952 0.2176847 -0.21479207
0.056000602 0.21758309 -0.21518277
0.071982294 0.21371028 -0.21532586
0.08616595 0.21657863 -0.21307212
0.075493559 0.20828192 -0.20526402
0.065864764 0.21911947 -0.20474428
0.078384608 0.21108153 -0.20888019
0.087667271 0.21528909 -0.20707302
0.092850909 0.21402258 -0.20325309
0.094476998 0.20753016 -0.19255149
0.044209834 0.21837799 -0.19538771
0.056923401 0.21943332 -0.19030164
2.110271 -0.17781688 -0.18854679
0.038181387 0.21285932 -0.18596154
0.046155915 0.21455839 -0.18483523
0.053081095 0.2189368 -0.18816148
0.065527722 0.21725252 -0.18828723
0.044987794 0.20782642 -0.17719096
0.037101611 0.21587056 -0.17269933
0.044500731 0.21211493 -0.17975672
0.054271601 0.21443951 -0.17600136
0.033558406 0.21716142 -0.16870832
0.043273412 0.21750626 -0.16642083
0.057190683 0.21964492 -0.16342966
2.2072945 -0.20721318 -0.15748811
0.034418818 0.21826482 -0.15913942
0.040853512 0.2181499 -0.15453027
0.028918948 0.22178839 -0.15139365
0.037413202 0.22256531 -0.15791452
0.043611236 0.20891687 -0.14410952
0.034548573 0.21731573 -0.14599469
0.042254295 0.21662679 -0.14366412
0.055734359 0.21641877 -0.1457732
0.064347945 0.21445283 -0.1411404
0.028126674 0.22277394 -0.14532955
-0.10458004 0.23827308 -0.14566767
-0.098060369 0.23689279 -0.14845824
-0.060006455 0.24126714 -0.14188333
0.025394684 0.20997877 -0.13181856
0.045281999 0.20845988 -0.13785169
0.056506414 0.20222889 -0.132615
0.065655246 0.20766121 -0.13459718
0.071415253 0.20636714 -0.13070984
0.026544819 0.21543866 -0.13366543
0.032093752 0.21569546 -0.13354062
0.055575449 0.21119678 -0.13523065
0.062444225 0.21343875 -0.13386369
0.079883911 0.21651095 -0.13361998
0.02642796 0.22289938 -0.13543369
0.035400063 0.22270431 -0.13420029
-0.11628001 0.23638305 -0.13306814
-0.12418076 0.24364397 -0.13254738
-0.11441059 0.24456979 -0.132314
0.037253201 0.20905954 -0.12488621
0.064164616 0.20114824 -0.12472078
0.074020751 0.20768671 -0.12631674
0.086859845 0.20983477 -0.12231629
0.026192768 0.21610421 -0.12585057
0.034496494 0.21598993 -0.12556656
0.04045134 0.21682785 -0.12475859
0.071927421 0.21291783 -0.12752533
0.026308518 0.22402298 -0.12667072
-0.1238321 0.23895141 -0.12567991
-0.14053737 0.24571875 -0.12264104
-0.13481592 0.24487571 -0.12535343
-0.12672572 0.24453674 -0.12499647
-0.11704066 0.24498892 -0.1246869
-0.10851019 0.24067567 -0.12356628
-0.093192674 0.24294636 -0.12876615
-0.14770785 0.2510843 -0.12548636
0.082332693 0.19810766 -0.1141525
0.01966352 0.20956591 -0.11685192
0.032529626 0.20622084 -0.11299839
0.078671806 0.20497207 -0.1172761
0.083799027 0.20346782 -0.11216052
0.091310345 0.20794575 -0.1158382
0.019164262 0.21570753 -0.11332922
0.023982201 0.2161767 -0.11539098
0.034052186 0.21680295 -0.11556751
0.044738814 0.21486159 -0.11375778
0.090511531 0.21476375 -0.11512341
0.026163429 0.22240576 -0.11559965
0.035137109 0.22432528 -0.11412562
-0.13311315 0.23974407 -0.11439561
-0.15477127 0.24679473 -0.1114089
-0.14509487 0.24516141 -0.11523802
-0.13397126 0.24348579 -0.1125791
-0.12487447 0.24315163 -0.11573328
-0.11476552 0.24257042 -0.11631653
-0.10510444 0.2414656 -0.11529827
-0.094710879 0.24455583 -0.11340693
-0.085733257 0.24019444 -0.11530901
-0.15478693 0.25133818 -0.11821637
-0.14419146 0.25049457 -0.11237165
0.088123694 0.19531137 -0.10452609
0.092979796 0.20460552 -0.10694475
0.017279107 0.21660525 -0.10291868
0.024699818 0.21601504 -0.10449506
0.034800809 0.21458998 -0.1042063
0.042994916 0.21686332 -0.10402819
0.09672831 0.21272756 -0.10664846
0.026092818 0.22261022 -0.10395762
0.035112333 0.22512911 -0.1049278
-0.13627881 0.23799132 -0.10875054
-0.16034308 0.24700552 -0.10288539
-0.15335767 0.24689588 -0.10438796
-0.14572974 0.24459529 -0.10590042
-0.13606486 0.24447639 -0.10530624
-0.12312634 0.24410924 -0.10569665
-0.11740439 0.24283332 -0.1055175
-0.10480771 0.24142741 -0.10403664
-0.094073877 0.24217097 -0.10377042
-0.085412048 0.24270642 -0.10185803
-0.07568147 0.24165161 -0.10843796
-0.16300252 0.25220686 -0.10369733
-0.15900369 0.25437769 -0.10043923
-0.14632197 0.25511122 -0.10575752
0.033236846 0.20796461 -0.095903672
0.095536619 0.20364639 -0.099073686
0.10587361 0.20428494 -0.093276426
0.017059192 0.2158456 -0.09491314
0.024116939 0.21549775 -0.094801396
0.034979761 0.21433634 -0.094375342
0.043642655 0.2163803 -0.09295924
0.051191948 0.21539967 -0.098188356
0.025391895 0.22224095 -0.094906673
0.034952044 0.22480217 -0.095644981
-0.1315348 0.23841406 -0.099715002
-0.1640539 0.24568737 -0.094608627
-0.15636361 0.24673259 -0.09638454
-0.14414628 0.2447992 -0.094700187
-0.13567965 0.24409023 -0.09433236
-0.12573054 0.24322772 -0.095340751
-0.11416084 0.24315163 -0.094366387
-0.10526381 0.24292207 -0.095053196
-0.0928424 0.24244484 -0.094686493
-0.086957633 0.24221468 -0.096162841
-0.17388825 0.25268739 -0.093395025
-0.16579069 0.25540677 -0.095894828
-0.15501958 0.25241134 -0.095682837
-0.14796479 0.25170338 -0.099101178
-0.13614002 0.25176418 -0.092470147
-0.11102859 0.25007489 -0.093761854
0.097356603 0.19330654 -0.084681526
0.10554498 0.19617468 -0.086594537
0.024716036 0.20737161 -0.085549384
0.03301236 0.20825818 -0.088490352
0.10503171 0.20416704 -0.086286128
0.0098105334 0.21616389 -0.08008007
0.015273249 0.21450217 -0.084809482
0.025353683 0.21563989 -0.085110597
0.03481131 0.21529754 -0.085310258
0.045697119 0.2190699 -0.088931702
0.10972304 0.21019265 -0.085848629
-0.037196815 0.22435626 -0.083775789
0.018703181 0.22398819 -0.082542494
0.026003601 0.2233616 -0.084923767
-0.16426881 0.24790688 -0.084939681
-0.15442817 0.24588725 -0.08496806
-0.1438821 0.24550763 -0.084705219
-0.13600539 0.24690665 -0.085199229
-0.12523094 0.24500358 -0.084952317
-0.11581422 0.2441093 -0.085342623
-0.10591582 0.2452462 -0.085405745
-0.095910326 0.24473229 -0.084114149
-0.1740886 0.25829962 -0.084936261
-0.16607203 0.25303805 -0.085089579
-0.15437499 0.25210136 -0.085707575
-0.14467797 0.25123787 -0.086491607
-0.13786332 0.25150707 -0.080005869
-0.1250678 0.25025684 -0.08416976
-0.1145473 0.25008574 -0.086246908
0.10654497 0.19418274 -0.077777185
0.11159576 0.198386 -0.071055777
0.10807247 0.2007297 -0.074467331
0.11454404 0.20356396 -0.075593568
0.0082650026 0.21557586 -0.07297574
0.01566091 0.21463104 -0.075384527
0.025550125 0.21589349 -0.075897045
0.036213607 0.21541388 -0.074805163
0.045475803 0.21922196 -0.075686969
0.051090512 0.21771206 -0.071795471
-0.05436207 0.22461642 -0.075300403
-0.036326405 0.22431533 -0.074781075
0.0076472606 0.22208685 -0.070906922
0.015395639 0.22323772 -0.075726368
0.024844848 0.22593139 -0.077183776
-0.16075173 0.24779955 -0.078245543
-0.15436885 0.24724834 -0.076114975
-0.14488287 0.2470412 -0.075324379
-0.1345301 0.24727008 -0.075332113
-0.12522443 0.24499698 -0.075064316
-0.11580873 0.24561471 -0.075348161
-0.10677343 0.2435278 -0.075326011
-0.095086999 0.24257784 -0.074466549
-0.16027042 0.25366476 -0.07312347
-0.1543204 0.25125253 -0.074639097
-0.14731583 0.25175494 -0.0762752
-0.1380309 0.25443852 -0.078525037
-0.11500632 0.25242293 -0.079800688
-0.1082898 0.2505334 -0.076469995
-0.1714935 0.26077282 -0.079866976
0.10594374 0.19251047 -0.06640321
0.10995708 0.20083664 -0.067259192
0.0083179679 0.21375196 -0.062055882
0.014065031 0.21532249 -0.06400615
0.026129754 0.21588451 -0.061498158
0.033704031 0.21544294 -0.063638777
-0.044621412 0.22524957 -0.064487576
-0.034927256 0.22557142 -0.064732686
0.0085958838 0.22367358 -0.067084417
0.015475035 0.22563992 -0.065277085
-0.15333959 0.24628606 -0.066062421
-0.14567737 0.24601629 -0.064370975
-0.13606147 0.24567622 -0.066397615
-0.12532748 0.24658343 -0.066141516
-0.11608367 0.2446472 -0.065958239
-0.10494024 0.24445102 -0.065049805
-0.094062619 0.24454615 -0.063970424
-0.15460236 0.25291666 -0.066227101
-0.14538229 0.25422695 -0.064867973
-0.13568366 0.25303847 -0.063345492
-0.12658538 0.25224608 -0.064886346
-0.11630073 0.25247434 -0.064516038
0.10920621 0.19173317 -0.058046892
0.11165679 0.19437225 -0.056030653
0.011878517 0.20811354 -0.05482414
-0.031870436 0.21637614 -0.055330854
0.0058940323 0.21520442 -0.053526163
0.013564669 0.21569163 -0.055517569
0.024812108 0.21556729 -0.055381287
0.03512264 0.21559083 -0.05343318
0.045040574 0.21746147 -0.051990841
-0.052852936 0.22644441 -0.054846328
-0.043726444 0.22632445 -0.05376653
-0.035266228 0.22450359 -0.054297552
-0.028508976 0.22354856 -0.054093715
0.005638333 0.22395526 -0.053203057
0.015606686 0.22456986 -0.054291856
0.024543701 0.22575438 -0.055381835
-0.14329414 0.24622834 -0.055111371
-0.13572165 0.24622396 -0.054322548
-0.12639265 0.2454149 -0.054719221
-0.11479034 0.24585555 -0.055129025
-0.10478776 0.2454375 -0.055648245
-0.095338576 0.24514076 -0.055110235
-0.14445843 0.25244474 -0.054878693
-0.13566267 0.25480607 -0.053393669
-0.12533036 0.25252795 -0.055289607
-0.033836946 0.21683364 -0.043336026
-0.027592728 0.21570115 -0.043626733
-0.00059355766 0.21443847 -0.041081384
0.0035689105 0.21650402 -0.04573264
0.013558049 0.21699861 -0.045221981
0.026067814 0.21765313 -0.046602391
0.035847932 0.2151258 -0.043630958
0.042816173 0.21723354 -0.047209006
-0.054079946 0.2265435 -0.044872645
-0.04454273 0.2256145 -0.045105126
-0.03497725 0.22626708 -0.045560963
-0.028744686 0.22821443 -0.048239067
0.0040415921 0.22460321 -0.044737902
0.015108322 0.22496353 -0.045258008
0.02336682 0.22547904 -0.045205694
-0.1340936 0.24765174 -0.047057495
-0.12487315 0.24712612 -0.044974245
-0.11499678 0.24531494 -0.045271497
-0.10537105 0.24533242 -0.045455258
-0.096359462 0.24564576 -0.044714093
-0.14116929 0.25517336 -0.0468105
-0.13371582 0.2531198 -0.043359436
-0.12531251 0.25299948 -0.043897007
-0.025177218 0.21524248 -0.03582193
-0.0025617315 0.21572238 -0.034780007
0.00067538081 0.21570447 -0.038023971
0.013240268 0.21815838 -0.035636559
0.025972605 0.21554914 -0.037749939
0.03703085 0.21680294 -0.034801997
0.042909414 0.21655318 -0.032574106
-0.066468731 0.22678521 -0.034743577
-0.054633878 0.22636808 -0.035202995
-0.044025671 0.22623274 -0.035650641
-0.035078734 0.22429936 -0.03435212
-0.025851343 0.22191854 -0.036713161
-0.0025723984 0.22476891 -0.034241188
0.0031555949 0.22642843 -0.036646444
0.014098764 0.22615267 -0.036534481
-0.13091177 0.24961346 -0.039982527
-0.12498645 0.24592456 -0.035489749
-0.11439148 0.24725498 -0.035200186
-0.10595997 0.24645042 -0.034807913
-0.13135326 0.253746 -0.036212865
-0.050740507 0.21956469 -0.021501614
-0.035736572 0.2162165 -0.024612121
-0.024566814 0.21522695 -0.024592102
-0.011920229 0.21588854 -0.021447733
-0.0073153004 0.21583307 -0.024894115
0.0068670679 0.21918657 -0.02562291
0.037411489 0.21285537 -0.025185743
0.044035405 0.21783426 -0.023951456
-0.063401073 0.22731617 -0.023129907
-0.054642666 0.22582774 -0.023532066
-0.045358192 0.22490093 -0.024328284
-0.035911437 0.22408505 -0.0244637
-0.027578712 0.22106194 -0.02405083
-0.010851812 0.22600165 -0.021124532
-0.0072246422 0.22450325 -0.025169699
0.0082196835 0.22670202 -0.028451405
0.014319831 0.226697 -0.025243217
-0.11515581 0.24727874 -0.028083587
-0.042965762 0.21788147 -0.013585131
-0.024967635 0.21575288 -0.014976939
-0.013604891 0.21513693 -0.015385078
-0.0086453045 0.21318537 -0.016024921
0.048973732 0.21816158 -0.018105933
-0.065052077 0.22788639 -0.013699316
-0.053789336 0.2242564 -0.014527833
-0.043922763 0.22586706 -0.014613979
-0.035616312 0.22506395 -0.014540441
-0.026584486 0.22250903 -0.013665318
-0.014442845 0.22539127 -0.015396105
-0.0090642003 0.22502774 -0.016448976
-0.037569992 0.23096584 -0.011055965
-0.034329433 0.21744679 -0.0051242034
-0.024646945 0.21550073 -0.0045888615
-0.015778461 0.21506611 -0.0060549877
-0.0096218688 0.21223086 -0.0075573586
0.042474534 0.21566243 -0.0061091501
-0.075483456 0.22756764 -0.0085788751
-0.062618226 0.22601143 -0.0066055423
-0.055110104 0.22645032 -0.0058486611
-0.044433858 0.22546925 -0.0052731624
-0.034899268 0.22619453 -0.004475907
-0.025004288 0.22382417 -0.0042051645
-0.014890347 0.22548907 -0.0056528416
-0.0045099007 0.22817688 -0.0050613005
-0.0062099947 0.21529754 0.02598956
-0.0067023425 0.22539924 0.025156757
0.0051834076 0.22625928 0.025169976
0.0010247579 0.20721042 0.035395816
-0.0026429051 0.2149168 0.033904959
0.0016158189 0.2158535 0.036513526
0.010670085 0.21587738 0.039718263
-0.0026327525 0.22503126 0.033736296
0.0019460883 0.22567596 0.036570329
0.010776737 0.20858228 0.043529928
-0.00057237421 0.21253185 0.040797155
0.0039351918 0.21501982 0.044969242
0.013200779 0.21660441 0.043618113
0.0043761097 0.22494137 0.044835508
0.0058660023 0.2060712 0.054989498
0.012337593 0.20606908 0.056545705
0.0062322966 0.21526702 0.054653265
0.013124942 0.21562371 0.056477077
0.0066454737 0.22372845 0.053787231
0.014019996 0.2236709 0.054606445
0.007270107 0.20627692 0.064076409
0.012260854 0.20603676 0.066061817
0.0081736855 0.21402614 0.063096382
0.0126454 0.21603386 0.064101376
0.0078976406 0.2236778 0.063813187
0.0095816767 0.20535846 0.07445731
0.011454838 0.20746946 0.073451422
0.0089853248 0.21258382 0.071666375
0.01227212 0.21469256 0.075121313
0.0089288168 0.22292399 0.074395262
0.010886976 0.21560051 0.081224173
0.01219302 0.22212702 0.081584185
3.462177 -0.4423067 0.18380013
3.3873575 -0.43233415 0.24000615
3.2958958 -0.42014858 0.29227555
3.154453 -0.40101796 0.33625016
3.1884847 -0.40681297 0.39698079
3.3694477 -0.43363672 0.47980779
6.3415346 -1.0245138 0.78412664
6.3523731 -1.0289075 0.89903063
6.3299799 -1.0280334 1.0096099
6.3231745 -1.0301436 1.1227604
0.68541127 0.046405867 1.1792884
0.76083171 0.036699727 1.2093183
6.318243 -1.0329275 1.2367284
0.67462373 0.058254745 1.2564113
0.65421915 0.057616889 1.2701398
0.63491511 0.057051126 1.2861863
0.60940284 0.068271905 1.2899066
0.61394751 0.056400608 1.2992247
0.59003806 0.067772418 1.3061244
0.57518172 0.067685932 1.3329889
0.55332875 0.067035489 1.3449836
6.3132124 -1.036055 1.3512707
1.5280899 -0.12538849 1.3578709
0.55743301 0.079871386 1.3546525
0.53835613 0.067042768 1.3742014
0.53667456 0.079407498 1.3700395
1.6220627 -0.13217512 1.3899977
0.52021301 0.079505526 1.3972124
1.5301144 -0.11053584 1.4078321
1.7558599 -0.16269764 1.4501867
6.2974801 -1.0377103 1.4640106
1.8574188 -0.19150226 1.4788793
3.0823314 -0.41104439 1.5230801
6.2912436 -1.0413597 1.5794697
6.2781529 -1.0441971 1.6938729
6.2762799 -1.0493584 1.812098
6.3193703 -1.0627853 1.9451821
6.2421007 -1.0694944 3.2009387
6.237967 -1.0792431 3.3379121
6.2231874 -1.0875959 3.4713857
2.6951008 -0.40412837 3.612458
2.6398773 -0.40600571 3.6698854
2.4477437 -0.35779867 3.6662359
6.1458311 -1.0844203 4.3291683
6.149004 -1.0995096 4.4939632
3.4151449 -0.56935769 4.5679889
3.9379821 -0.68463439 4.8979745
4.4192076 -0.78080773 4.9414687
4.9403515 -0.88799828 4.9721713
