# .PCD v0.7 - Point Cloud Data file format
VERSION 0.7
FIELDS x y z
SIZE 4 4 4
TYPE F F F
COUNT 1 1 1
WIDTH 791
HEIGHT 1
VIEWPOINT 0 0 0 1 0 0 0
POINTS 791
DATA ascii
1.658718 0.10680628 -1.1016928
1.5468937 0.13582914 -1.1089575
0.29490009 0.31918806 -1.0716956
0.27523097 0.33676419 -1.0706427
0.33172488 0.3116093 -1.0637418
0.27421769 0.32548383 -1.066861
0.29177234 0.32595661 -1.0607878
0.31055552 0.317736 -1.0588151
0.3089256 0.32614163 -1.0534838
0.3276985 0.32802671 -1.0513498
0.36920968 0.32493165 -1.0566814
0.42557108 0.29926041 -1.0440054
0.3258597 0.31627995 -1.0456905
0.34487772 0.31840295 -1.0441459
0.36418703 0.31068933 -1.0428818
0.40393922 0.31589702 -1.0415078
0.34556243 0.32905555 -1.0461345
0.44182241 0.2992295 -1.0334589
0.46378317 0.29263151 -1.0353701
0.50702131 0.29888168 -1.0351807
0.40092117 0.3036288 -1.0340379
0.37962288 0.31987894 -1.0309626
0.38090372 0.3108905 -1.0342993
0.36072925 0.32780778 -1.0333816
0.68859577 0.25917035 -1.0202786
0.61578703 0.27084544 -1.0236274
0.50369072 0.28679073 -1.028644
0.52543151 0.28982183 -1.0279256
0.61565614 0.28140953 -1.0234179
0.41780093 0.3040956 -1.0257001
0.43766543 0.30662754 -1.0241222
0.45948318 0.30019456 -1.0261487
0.41869071 0.31475198 -1.0277961
0.58730501 0.27597818 -1.0160122
0.70788592 0.27147353 -1.0107272
0.58464086 0.28524467 -1.0115783
0.47565207 0.29529056 -1.015677
0.45353004 0.30656576 -1.0133822
0.70161492 0.25847408 -1.0020958
0.67672229 0.26584992 -1.0033214
0.7536245 0.26564357 -1.0000558
0.68110549 0.27821574 -1.0095813
0.72604156 0.26158592 -0.99942827
0.64488143 0.27029157 -0.99338269
0.50608963 0.28990144 -0.99154884
0.59895146 0.28478959 -0.99668485
0.64147687 0.27948022 -0.98833531
0.72577214 0.26754439 -0.96440649
3.0878353 -0.097944148 -0.95720273
3.1739461 -0.1009053 -0.92251813
0.40141737 0.33354041 -0.82792127
0.39534518 0.32027784 -0.81600392
1.8541818 0.094169274 -0.80463636
0.21000725 0.35162205 -0.77563906
0.22462676 0.35522225 -0.77775478
0.2376975 0.35637802 -0.77435523
0.24804936 0.35386893 -0.762936
0.26339614 0.3582699 -0.76596111
2.9575992 -0.062780157 -0.74829876
0.23605196 0.35274518 -0.72809303
0.35609657 0.3353093 -0.70945287
0.35436371 0.34152573 -0.7061938
2.958333 -0.062178023 -0.69310784
0.26575792 0.35523903 -0.69949722
0.33748874 0.3487339 -0.67445666
0.32464561 0.34358397 -0.65030223
2.996196 -0.062950321 -0.64621717
0.31085432 0.354873 -0.62436455
0.31663293 0.35459146 -0.61057884
0.82360047 0.27824435 -0.60250223
0.27567038 0.36830482 -0.60565376
0.26967365 0.35373783 -0.59335864
0.30661237 0.35104319 -0.59250128
1.3393213 0.19434787 -0.58609104
0.31444535 0.34987977 -0.58360642
0.29750273 0.34809917 -0.57606703
0.30814871 0.35019115 -0.57270038
0.31377861 0.34711209 -0.56078786
0.31126955 0.35818017 -0.55661207
1.3186096 0.19119897 -0.54961014
1.3053741 0.20213224 -0.54426271
0.80302542 0.285366 -0.54599959
0.30437285 0.35753232 -0.54513401
0.31748232 0.35594097 -0.54624009
1.2874616 0.21221849 -0.53702557
0.31224474 0.3572171 -0.53785819
0.31069124 0.36234635 -0.53537208
1.3171625 0.20275968 -0.52173787
0.3020626 0.36634669 -0.52156335
0.31441551 0.36455947 -0.52189761
1.2972703 0.2126282 -0.51410198
0.31224635 0.35550874 -0.51855743
0.32059023 0.35616368 -0.51260126
0.31462646 0.35658622 -0.50375956
0.31635246 0.36508882 -0.50631851
0.72904038 0.30350605 -0.49795312
0.31777716 0.3521581 -0.49069464
0.3154586 0.36347046 -0.49607641
1.2544658 0.20620044 -0.47197911
1.2717069 0.22045442 -0.47825438
0.35383525 0.34642506 -0.47192174
0.3575249 0.35631943 -0.47647804
0.32038176 0.36375767 -0.47737342
0.36028829 0.34604621 -0.46384686
0.32490087 0.35468948 -0.46709663
0.33395651 0.35686511 -0.46290532
0.34920308 0.35517412 -0.46620145
0.35833743 0.35730278 -0.46152192
0.3261252 0.3657001 -0.46872136
0.33415073 0.36685309 -0.46315393
0.34739476 0.36000395 -0.46396837
1.2053941 0.23399498 -0.45411849
0.35571238 0.34842545 -0.45839351
0.34966645 0.36227953 -0.45118827
0.35427791 0.36009493 -0.45668396
0.36135215 0.34752265 -0.44965002
0.37179846 0.3476826 -0.44636557
0.38226625 0.34781069 -0.44284129
0.35802311 0.35419065 -0.44582045
1.3780947 0.19449545 -0.43448254
1.3739277 0.20672555 -0.43320858
0.36322173 0.34986004 -0.43684012
0.37682062 0.34968993 -0.43700156
0.38694391 0.34641069 -0.43306243
0.36306152 0.35612997 -0.43666217
0.37179711 0.35825413 -0.43161452
4.0401545 -0.20371409 -0.42934114
0.58776957 0.31658062 -0.42161927
0.36903146 0.34942403 -0.42864868
0.38020602 0.34725964 -0.42608517
0.39483833 0.34454584 -0.42665815
0.40454265 0.34410289 -0.42192194
0.37707889 0.3510088 -0.42284691
0.39804208 0.35681978 -0.42986187
0.40695295 0.3524456 -0.42424953
0.49706945 0.32960278 -0.416058
0.5162673 0.32712752 -0.41611701
0.52991593 0.32803595 -0.41145679
0.53195465 0.32230884 -0.412938
0.5549686 0.32443994 -0.41440415
0.5607872 0.32043028 -0.41847834
0.44316635 0.33963951 -0.41476128
0.46512169 0.33390641 -0.41920888
0.47637302 0.33394068 -0.41407868
0.50549555 0.33621633 -0.41526413
0.56040388 0.33432865 -0.41820997
0.42581365 0.34454903 -0.41351521
0.442469 0.34569103 -0.4141551
0.46138889 0.34468442 -0.41607666
0.47850031 0.34195566 -0.41580135
0.49153689 0.34646037 -0.41173548
0.38749176 0.3546142 -0.41931158
0.39923611 0.35605142 -0.41679746
0.45520177 0.35042635 -0.4108851
0.48374116 0.33486798 -0.4056448
0.50602734 0.33815739 -0.40840062
0.4067477 0.34756958 -0.40998828
0.41923007 0.34614372 -0.40758732
0.46670601 0.34096119 -0.40625048
0.41872597 0.35549057 -0.4071334
1.323332 0.21228956 -0.39186302
1.2989907 0.22116399 -0.38488328
1.0967678 0.24613956 -0.37026721
4.044961 -0.20351669 -0.35781026
1.2971562 0.20835589 -0.35921884
1.289971 0.21928544 -0.35729355
0.97757357 0.26231101 -0.35125616
0.28539857 0.36938137 -0.35040873
0.27741814 0.36761644 -0.2991592
0.29208902 0.38720965 -0.25590971
2.763829 -0.0034702343 -0.19640478
-0.35827568 0.47492114 -0.18435055
0.28261817 0.37703171 -0.17139697
0.27935481 0.38444445 -0.13616198
-0.41385323 0.49834761 -0.13523935
3.4765668 -0.10691012 -0.12297487
3.2560294 -0.068799771 -0.11527353
-0.30877668 0.47372746 -0.11917309
-0.39326346 0.49802738 -0.11387327
-0.43194282 0.49852046 -0.10409188
-0.40357828 0.49742353 -0.10332052
-0.39481384 0.50155407 -0.10754997
-0.38019979 0.50038773 -0.10308201
0.25648215 0.39425308 -0.097241871
-0.41877797 0.49847302 -0.093526594
-0.36577287 0.49779263 -0.095557883
0.23984033 0.39958793 -0.081176788
0.26879686 0.3996475 -0.083670758
0.27905649 0.398819 -0.080463082
0.26809075 0.40022567 -0.089277469
-0.42478046 0.49738953 -0.085600637
-0.40314621 0.49708888 -0.089629158
-0.36642489 0.49761912 -0.084509641
-0.42822665 0.5053547 -0.081666358
-0.40162018 0.50162387 -0.08259853
0.22576289 0.39145255 -0.077140152
0.27838868 0.39667091 -0.074393891
-0.43690005 0.49708724 -0.076338366
-0.42891231 0.49663797 -0.074785702
-0.41800869 0.49685597 -0.072666258
-0.36504781 0.49833351 -0.074155129
-0.40186822 0.50030756 -0.0760637
0.21693848 0.39600429 -0.06977535
0.27564842 0.39147916 -0.065052517
0.22521867 0.40800843 -0.06703981
-0.26307696 0.47485015 -0.067273974
-0.4013097 0.49689156 -0.062947564
-0.3748008 0.49920362 -0.064267486
-0.44305912 0.50092626 -0.063134119
3.2595165 -0.068849012 -0.057680428
0.27908602 0.39338452 -0.051242433
0.21976471 0.41065192 -0.056068458
-0.42671636 0.49864641 -0.053708285
-0.40574804 0.49672082 -0.057224628
-0.3842299 0.49992913 -0.053816486
-0.37466234 0.49711341 -0.055275802
-0.42075005 0.50019544 -0.052869774
-0.39138103 0.50029051 -0.054949112
0.27856857 0.39194632 -0.045413047
0.22087614 0.40937597 -0.042022895
-0.2401482 0.47234589 -0.048989184
-0.23603146 0.47361901 -0.047962766
-0.44194213 0.49695426 -0.04174621
-0.43342471 0.49645442 -0.044288561
-0.33162618 0.49713349 -0.040344227
-0.44523826 0.50114483 -0.049184263
-0.4324806 0.50382656 -0.047617819
-0.40547758 0.50235915 -0.04430227
-0.38780597 0.50308686 -0.048239786
-0.3793731 0.50112456 -0.047054622
0.20905842 0.40224066 -0.031153267
0.22249913 0.40413445 -0.037533004
-0.20998995 0.47609997 -0.038357202
-0.19553018 0.47270021 -0.032205194
-0.44478023 0.49916932 -0.03499122
-0.40131509 0.49619496 -0.031188514
-0.37259769 0.49924037 -0.034457814
-0.34569857 0.49775824 -0.031630602
-0.3355695 0.49700859 -0.033164583
-0.40793005 0.50030124 -0.038171396
-0.39374319 0.50352573 -0.030526057
-0.38228127 0.50284803 -0.035475601
-0.36473742 0.50209463 -0.036504898
0.26777452 0.38846305 -0.02186366
0.23452437 0.39385357 -0.024440233
0.24489272 0.39548746 -0.020263609
0.2753801 0.39864558 -0.028014645
0.21876687 0.40371498 -0.027697105
0.23987517 0.4091616 -0.029915677
-0.23625536 0.47331715 -0.020127658
-0.1872547 0.47262606 -0.027812222
-0.17969929 0.47419211 -0.023871666
-0.42686731 0.49829611 -0.024462825
-0.41245404 0.49610409 -0.025702555
-0.35578763 0.49759182 -0.024485152
-0.34394675 0.49857113 -0.023510745
-0.44119725 0.50243843 -0.02076705
-0.40255263 0.50100446 -0.025010182
-0.38581818 0.50203145 -0.026816562
-0.37385806 0.50008726 -0.028786333
-0.36590099 0.50189286 -0.022447247
-0.34809938 0.50021356 -0.026532741
0.25709713 0.39928776 -0.015829006
0.26688004 0.39322045 -0.016341707
0.23956499 0.40059543 -0.014910187
0.25221989 0.40539947 -0.01037819
-0.22480959 0.47441393 -0.018924659
-0.21344544 0.47521693 -0.017730238
-0.202428 0.47084901 -0.013788147
-0.17612697 0.47166112 -0.011487105
-0.44550672 0.49859986 -0.01398696
-0.43875667 0.49959537 -0.013751243
-0.4272078 0.49543005 -0.013347947
-0.39587575 0.49680257 -0.015321554
-0.38474023 0.49587619 -0.014863688
-0.35518724 0.4960919 -0.016259454
-0.33801332 0.49806148 -0.012780527
-0.41560322 0.50279164 -0.012942705
-0.38208008 0.50075197 -0.014719179
-0.37107283 0.50348866 -0.011387671
0.26716518 0.3995873 -0.0054487437
0.27024892 0.39724204 -0.0055025704
0.13416992 0.42393503 -0.003127303
-0.30151743 0.47584659 -0.008958743
-0.43490079 0.4993467 -0.0068058632
-0.42141077 0.4969697 -0.0065703942
-0.39949903 0.49661344 -0.0061879233
-0.33661842 0.49997613 -0.0050903377
-0.32954666 0.49883112 -0.0099375453
-0.4485136 0.50147343 -0.0070434758
-0.39619929 0.50083768 -0.0061303261
-0.38600159 0.50101596 -0.0059523247
-0.37522897 0.50025165 -0.0057642879
-0.36536044 0.50438416 -0.0055920319
3.2949915 -0.070063636 0
0.1431056 0.40873161 0.009854964
0.14869617 0.41308516 0.0033808597
0.11231594 0.42463094 0.008241347
-0.067364857 0.44195125 0.0072352844
-0.4154247 0.49841872 0.0064659067
-0.40877652 0.49905464 0.0063498626
-0.39381847 0.49540874 0.0040755123
-0.43971875 0.50034213 0
-0.42550218 0.50135785 0.0066418098
-0.40419823 0.501863 0
-0.38438699 0.50309455 0
-0.3765583 0.50180179 0
-0.3641156 0.50281888 0.0055703027
-0.35550377 0.50281543 0.0036077122
-0.34363636 0.50102085 0
0.09875048 0.41477835 0.012561556
0.10668678 0.41785994 0.010599308
0.13571846 0.41969082 0.018968366
0.142998 0.41832256 0.013138435
0.15632799 0.41880599 0.015814444
0.095198557 0.42472988 0.017140608
0.10342963 0.42294955 0.015558662
0.11191279 0.42362419 0.010964746
0.14129427 0.42418098 0.016283656
0.096176252 0.43370193 0.018541686
0.10673572 0.43208849 0.017250255
-0.42331952 0.49668914 0.01541991
-0.41491857 0.49836391 0.019389844
-0.40658358 0.49680462 0.012627734
-0.39850193 0.49582681 0.015447748
-0.38506237 0.49624497 0.014837876
-0.35273248 0.49687964 0.013435147
-0.34860781 0.49956405 0.010603175
-0.3270674 0.49594134 0.017244373
-0.41410938 0.50128829 0.016085533
-0.38415283 0.50306714 0.011844435
-0.37604225 0.5017401 0.017352421
-0.34329602 0.50097632 0.013031087
0.10379662 0.41597545 0.026075687
0.11320481 0.41847724 0.022172688
0.12443952 0.41564327 0.026748836
0.13981256 0.41321024 0.029183686
0.14743787 0.41669777 0.021886256
0.073450029 0.42420352 0.029199634
0.084282279 0.42629001 0.024931427
0.093921721 0.42569003 0.025581088
0.10299395 0.42676696 0.022698168
0.11137553 0.42425469 0.021915598
0.13219616 0.42077851 0.021715768
0.085701436 0.43122387 0.027572427
0.096469946 0.43258017 0.022302337
0.10944201 0.43087319 0.024373462
-0.25187764 0.47547916 0.025442563
-0.42848694 0.49752399 0.026823685
-0.40449083 0.49522862 0.025145713
-0.38677603 0.49885276 0.023906972
-0.36606187 0.49832422 0.025287433
-0.3560611 0.4966653 0.025399998
-0.34506714 0.49624681 0.026267456
-0.33347607 0.49665791 0.020179877
-0.32504541 0.49715036 0.02782163
-0.44072649 0.5023905 0.027679557
-0.39529437 0.50073493 0.024502633
-0.3821682 0.50145286 0.023584763
-0.37443185 0.5005039 0.025940685
-0.35330677 0.50229597 0.021566574
-0.34226382 0.50048113 0.023408856
-0.333408 0.50126946 0.025247414
0.08401075 0.41819715 0.031039296
0.13589409 0.41501713 0.036612943
0.14058796 0.41674337 0.034263086
0.14834356 0.426718 0.033971142
-0.17785221 0.46877265 0.038594622
-0.228846 0.47230026 0.032537553
-0.20459801 0.47436899 0.037112374
-0.197583 0.47058615 0.038376492
-0.36875209 0.49495196 0.036917251
-0.35425586 0.49738604 0.03801303
-0.34474856 0.49692041 0.034201227
-0.33752704 0.49553877 0.033370327
-0.30505916 0.49655125 0.034297049
-0.39604628 0.50286222 0.036922362
-0.38394552 0.50077629 0.035650522
-0.32895327 0.50130343 0.037436653
0.11940768 0.4153623 0.048154701
0.1320239 0.41681296 0.042206913
0.12786964 0.42335466 0.047473136
0.15504527 0.42732036 0.04414887
-0.090523884 0.44716972 0.042074081
-0.083881348 0.4488219 0.043401785
-0.073086396 0.44505244 0.045444034
-0.062167879 0.44139794 0.046560965
-0.08418861 0.45027596 0.043661389
-0.16044511 0.47333166 0.040595114
-0.41569746 0.49773428 0.045557108
-0.3984254 0.49885496 0.046583157
-0.3651928 0.4999696 0.045061711
-0.35418892 0.49760863 0.047194429
-0.34212068 0.49586403 0.047147043
-0.33463746 0.4975996 0.043324813
-0.32061642 0.49953657 0.043741103
-0.31441569 0.49907535 0.042759001
-0.39330599 0.50050914 0.04280778
-0.38740891 0.50166857 0.042083714
-0.37656569 0.50129825 0.043679193
-0.32695198 0.50066674 0.047286138
3.3244667 -0.071117476 0.058814142
0.11510982 0.41582811 0.052267313
0.10945395 0.42548931 0.058141991
0.11660402 0.42727479 0.056811642
0.13318151 0.4291338 0.050592862
0.14387327 0.424954 0.057143196
0.15339717 0.42851454 0.056389611
0.16061257 0.4258807 0.054682862
-0.053045958 0.44489697 0.056339558
-0.19497994 0.47488669 0.052486409
-0.4154821 0.49747249 0.054350507
-0.39755788 0.49544063 0.055927433
-0.37764138 0.49517071 0.05478695
-0.36597347 0.49855673 0.053836428
-0.35598087 0.49469125 0.054954864
-0.3371464 0.49517429 0.054265961
-0.39267701 0.5018 0.055154376
-0.37791428 0.50164491 0.058822315
-0.33272651 0.50090706 0.050854493
-0.3248415 0.50111127 0.059691168
0.095944822 0.41981632 0.061020534
0.0759027 0.4272736 0.068759784
0.087062299 0.42484766 0.064684711
0.09411215 0.42586252 0.065634906
0.10469037 0.42733032 0.064207673
0.12549868 0.42680165 0.06645643
0.13384226 0.42834598 0.064105503
0.15228289 0.42664391 0.067085773
0.16574623 0.4263227 0.063808717
0.17235056 0.42516145 0.065849572
0.086526982 0.43445563 0.068451643
0.094688922 0.43658325 0.068597496
0.1058955 0.43381625 0.066902772
0.13128585 0.43075603 0.069900222
-0.41843003 0.49994972 0.065966338
-0.40851048 0.49700466 0.064217247
-0.38488865 0.4952285 0.066228375
-0.37098724 0.49529511 0.066506989
-0.36395979 0.49795473 0.062160216
-0.33627647 0.49578547 0.065696605
-0.31440711 0.4979398 0.067504011
-0.30599445 0.49626052 0.063766219
-0.29752669 0.49667788 0.066479698
-0.37081832 0.50390488 0.069463842
-0.36380082 0.50330991 0.067972228
0.19889544 0.41824555 0.073965162
0.21789999 0.41890594 0.070032984
0.063949019 0.42441019 0.073860697
0.074723989 0.42562708 0.074262455
0.084195822 0.42801088 0.073047303
0.093251862 0.42730829 0.076340944
0.10197826 0.42663473 0.076336972
0.1194461 0.42496809 0.076346703
0.12251975 0.42457649 0.075331822
0.14646044 0.42665744 0.074186921
0.15546218 0.42640933 0.075018197
0.16356397 0.42763215 0.072959237
0.17930254 0.42289546 0.07638938
0.18434846 0.42457181 0.076695338
0.064753123 0.43191552 0.077493638
0.075379193 0.43201408 0.07649529
0.085690416 0.43440291 0.075217299
0.095340475 0.43482083 0.07656014
0.10559104 0.43659869 0.074226543
0.11557162 0.43523845 0.07501246
-0.041162543 0.44518533 0.07385461
-0.038159132 0.44455102 0.074644186
0.06946829 0.44038072 0.076921999
-0.40785429 0.4975988 0.070692442
-0.38429129 0.49675739 0.075450048
-0.37797737 0.4964582 0.070985541
-0.35574797 0.49599952 0.076369546
-0.34553346 0.49451989 0.072427392
-0.31851164 0.49732518 0.073698081
-0.30663511 0.49464846 0.075510882
-0.29467401 0.49558362 0.076934159
-0.27490982 0.49538651 0.073126942
-0.4090519 0.5003913 0.077590637
-0.39666179 0.50237751 0.074957043
-0.33367118 0.50188345 0.077760063
0.10175018 0.41869521 0.087426931
0.12590361 0.4161233 0.088070363
0.15462846 0.41871697 0.083218783
0.16326693 0.41208428 0.084845439
0.19235611 0.41929871 0.085402809
0.055539433 0.42570788 0.085038677
0.064815879 0.42405254 0.085188955
0.074301228 0.42548022 0.085123815
0.086196229 0.4268367 0.085417315
0.095461972 0.42633611 0.085891001
0.10373104 0.42619798 0.08672481
0.11611477 0.42639017 0.083975092
0.12170093 0.42436442 0.084708393
0.13322389 0.42662081 0.084717236
0.14542836 0.42818558 0.086791798
0.15558106 0.4262287 0.084597498
0.16432101 0.42549977 0.084561661
0.17433563 0.42488891 0.083047733
0.18674043 0.42478749 0.084823869
0.05861019 0.4334842 0.080471717
0.064892232 0.43293548 0.084435835
0.07417275 0.43371344 0.084756754
0.085510753 0.43365663 0.08351659
0.09475144 0.43414414 0.084548227
0.1052235 0.43571734 0.082621649
0.1140179 0.43416795 0.084460422
0.12432587 0.43410152 0.083776765
-0.1548298 0.47404438 0.084362134
-0.14398484 0.47456953 0.086191706
-0.13604181 0.47424883 0.085281514
-0.39688087 0.49707329 0.08476001
-0.37550515 0.49770457 0.085870698
-0.36379927 0.49630463 0.085832864
-0.35283017 0.49958435 0.085852563
-0.34886691 0.49951732 0.087632291
-0.33181426 0.49416661 0.085515976
-0.3245388 0.49744305 0.0824356
-0.30651614 0.49463165 0.085687369
-0.40747216 0.50022131 0.083949566
-0.31265023 0.50138074 0.082430042
0.11353742 0.41757447 0.095990419
0.12523149 0.4179258 0.093626812
0.13431793 0.41836995 0.094970331
0.075506672 0.42491409 0.095141195
0.083737411 0.42763275 0.094573706
0.09507449 0.4266693 0.095960103
0.10436658 0.42474756 0.095548682
0.11672898 0.42576912 0.094302855
0.12249246 0.42426795 0.096793406
0.13454479 0.42579305 0.094506405
0.14258933 0.42960981 0.096942313
0.15665057 0.42396569 0.09342479
0.16343437 0.42477128 0.091068827
0.052401837 0.43306425 0.091637045
0.067364767 0.43190125 0.093508586
0.073964909 0.4351041 0.092810258
0.087108083 0.43174079 0.094225258
0.090197504 0.43221998 0.096611783
0.10431136 0.43240035 0.095522195
0.11700937 0.43136135 0.090055391
0.12798774 0.43424681 0.096393757
0.13510962 0.43150955 0.096640959
0.14420466 0.43088123 0.093930721
-0.047106758 0.44708616 0.09425962
-0.14688608 0.46965805 0.090626583
-0.15343629 0.47398332 0.099822886
-0.12540337 0.47281504 0.091681644
-0.3859719 0.49610543 0.095011219
-0.37901729 0.49683723 0.096277781
-0.34552187 0.4983936 0.095411375
-0.32421109 0.49615669 0.093643382
-0.31381008 0.49464437 0.095192187
-0.30802569 0.49926713 0.091411188
-0.29654893 0.494302 0.095150679
-0.37769517 0.5033024 0.095898665
0.14113909 0.41952637 0.10005111
0.075816229 0.42573529 0.10445894
0.084374055 0.4238393 0.10286865
0.096993558 0.42236057 0.10514373
0.1040976 0.42394984 0.10435157
0.11394151 0.42677268 0.10317748
0.12612399 0.42559803 0.10265739
0.13542914 0.42770249 0.10256834
0.14124444 0.42923504 0.1001095
0.065055594 0.43545011 0.10391831
0.071422502 0.4364087 0.10530414
0.10435635 0.43455577 0.10738223
0.12335762 0.43114248 0.10461813
-0.14866914 0.46884498 0.10794628
-0.17139243 0.47381675 0.10414426
-0.16424623 0.4731527 0.10465081
-0.15381549 0.47440809 0.10419988
-0.14648783 0.47242221 0.10591219
-0.38589475 0.49513435 0.10482313
-0.37364683 0.49591184 0.10322748
-0.36812645 0.49599952 0.10570577
-0.35744369 0.49590507 0.10533558
-0.32572675 0.49492154 0.10509505
-0.31388867 0.49457854 0.10622205
-0.30484712 0.49609184 0.10448726
-0.29565051 0.49438763 0.10528009
-0.28720474 0.49467191 0.10781773
-0.27285966 0.4963364 0.10487317
-0.25545469 0.49444166 0.10367555
3.3309381 -0.071417235 0.1178894
0.075517021 0.4261848 0.11588565
0.08677306 0.42706871 0.11270984
0.065151706 0.43181652 0.11372623
0.071761861 0.43405673 0.11482908
0.08728914 0.43549895 0.11555378
0.095090188 0.43356934 0.1121833
0.068028554 0.4416284 0.11384565
-0.15892194 0.46874395 0.11750718
-0.14179687 0.4690063 0.11446468
-0.12635009 0.47454381 0.11452951
-0.38640633 0.49522507 0.11505409
-0.37414202 0.49502337 0.11745772
-0.36721098 0.49727109 0.11179031
-0.34584534 0.49540955 0.11663103
-0.33419043 0.49485341 0.1181644
-0.31406343 0.49424273 0.11570897
-0.30477667 0.49368024 0.11551108
-0.29314664 0.49424618 0.1176787
-0.28448349 0.49497625 0.11634959
-0.2770761 0.4946861 0.11543244
-0.25376374 0.49478927 0.1188471
-0.29162842 0.50032812 0.11697075
0.065141603 0.43559006 0.12421285
0.070971347 0.43497145 0.12261388
-0.055343658 0.44628137 0.12753272
-0.04467788 0.44987351 0.12327345
0.074169867 0.44470823 0.12274955
-0.14830035 0.46897233 0.12119922
-0.18569286 0.47178185 0.12688936
-0.36687782 0.49408215 0.12470464
-0.35888603 0.49492523 0.12814207
-0.34288913 0.49434733 0.12167889
-0.30313134 0.49623254 0.12812032
-0.29398355 0.49459475 0.12556247
-0.26594496 0.49646848 0.1282862
-0.36560613 0.50053591 0.12421648
-0.3303974 0.50083297 0.12266248
0.051781092 0.4287802 0.1306873
0.046670198 0.4361127 0.13763671
-0.046848644 0.44864187 0.13137485
0.046029598 0.44016203 0.13949464
-0.16506824 0.46891055 0.13856287
-0.13369417 0.47305298 0.13569672
-0.09965048 0.47013727 0.13362855
-0.36584824 0.49494931 0.13546045
-0.35239059 0.49363506 0.13199802
-0.3470445 0.49384183 0.13621101
-0.33326924 0.49324563 0.13323113
-0.32419869 0.49431321 0.1342358
-0.28891775 0.49402541 0.13833329
-0.27814698 0.49342909 0.13808823
-0.38465241 0.50247306 0.13855237
0.031916957 0.43526909 0.14742938
0.042458765 0.43775895 0.1414493
-0.053701557 0.44999197 0.14402281
0.03726479 0.44338506 0.1466309
0.041363157 0.44381043 0.14410068
-0.18451869 0.468869 0.14416194
-0.16284928 0.46916994 0.14742093
-0.14742857 0.46891028 0.14708756
-0.20905997 0.47121677 0.1464967
-0.33324894 0.49409199 0.14498383
-0.18529084 0.47225803 0.15347104
-0.17096286 0.47264984 0.15643197
-0.14446935 0.47372323 0.15256649
-0.11535315 0.47243023 0.15339813
-0.10484727 0.47348544 0.15435885
-0.093002349 0.4702124 0.15866032
-0.3536545 0.49669459 0.15976639
-0.34191859 0.49742383 0.15378664
-0.32353157 0.49417567 0.15417948
-0.24334973 0.49355856 0.15330032
-0.22990504 0.49342203 0.15191673
3.1835382 -0.038539957 0.16919729
-0.15507087 0.46863317 0.1664035
-0.18728632 0.47122192 0.16157037
-0.17401612 0.47096381 0.16622071
-0.092719436 0.47202826 0.16247988
-0.3764742 0.49755767 0.16389203
-0.33381391 0.49288949 0.16553141
-0.3169235 0.49301368 0.16385341
-0.29736516 0.49513367 0.16196801
-0.25749519 0.49366859 0.16377977
-0.17363736 0.46974042 0.17246094
-0.16061051 0.47058216 0.1701116
-0.10734381 0.47258878 0.1750508
-0.095164075 0.47258779 0.17259297
-0.088389747 0.4701198 0.17704903
-0.073941313 0.47017217 0.17219283
-0.32434332 0.49395862 0.17882584
-0.31288528 0.49260771 0.17398798
-0.25311127 0.49418563 0.17004743
-0.38923979 0.50485533 0.17011823
-0.18028291 0.46917579 0.18038079
-0.16228043 0.46828341 0.18695408
-0.11521389 0.46909481 0.18605919
-0.13587162 0.47296381 0.18477277
-0.10520431 0.47271776 0.18476191
-0.093168303 0.47043097 0.18341649
-0.36274853 0.49608308 0.18693297
-0.28888673 0.49345198 0.18343817
-0.16902906 0.46926838 0.19624278
-0.12420096 0.47254467 0.19387257
-0.11462502 0.47265598 0.19456786
-0.10365503 0.47134227 0.19526145
-0.094723925 0.47311553 0.19275349
-0.084228754 0.47026032 0.19544376
-0.094429955 0.47252196 0.20398733
-0.30416963 0.49264503 0.20602202
-0.16293868 0.46804389 0.21316341
-0.11488153 0.47031277 0.2169186
-0.0802605 0.47002688 0.21948656
-0.30757502 0.49246448 0.21259916
3.1173165 -0.036938757 0.22112305
-0.16486308 0.46823272 0.22568917
-0.15752922 0.46820489 0.22360013
-0.1509821 0.4701803 0.2225375
-0.1171589 0.47040582 0.22818685
-0.10623263 0.47150159 0.22782645
-0.094477743 0.47250357 0.22444561
-0.082034156 0.47102448 0.22528793
-0.072890356 0.4712199 0.22856386
-0.30948114 0.49308029 0.22229347
0.056380861 0.45105666 0.2398802
-0.14217745 0.46768659 0.23894365
-0.091556683 0.47014257 0.23898496
-0.33803847 0.49548197 0.23639983
-0.13320342 0.46911222 0.24487178
-0.12194321 0.47167644 0.24585749
-0.11564142 0.4702338 0.24449928
0.061041027 0.45174122 0.25613213
-0.10907313 0.47083944 0.25738978
-0.094242468 0.4692429 0.26521951
-0.13364631 0.47091639 0.26610583
-0.15987656 0.47117174 0.27368012
3.1747804 -0.038623348 0.2816793
-0.12478786 0.46992469 0.28307238
-0.098780513 0.46974742 0.28006279
-0.088346899 0.4687539 0.28624845
-0.11951178 0.47077572 0.28606975
-0.11754914 0.46856329 0.29883915
-0.1214981 0.47007313 0.29152712
0.090262659 0.44984052 0.30469012
-0.13275759 0.46952498 0.30383423
-0.12813787 0.46987778 0.30976972
-0.12613079 0.47079846 0.30425534
0.082803257 0.44926542 0.31387097
0.077911183 0.45184121 0.31496537
-0.12512237 0.46795544 0.31414419
-0.13660021 0.47039092 0.31384459
-0.098390386 0.468712 0.32373124
-0.1124185 0.46935809 0.37608489
0.17205115 0.44946894 0.64327043
6.3726816 -0.46496165 1.1314899
0.74685347 0.39555609 1.1445625
0.73633754 0.39944419 1.1716006
0.72205395 0.40172145 1.1936901
0.71319228 0.40719828 1.2255238
6.3932014 -0.46840006 1.2512989
4.6812139 -0.21051975 1.2659744
0.42143553 0.44777143 1.266486
0.69166452 0.40409216 1.2871537
1.8038551 0.25110024 1.3370278
1.7640135 0.24862033 1.3563613
6.3939428 -0.47043967 1.3684305
0.70288575 0.42229572 1.3616685
1.7366238 0.24766298 1.384504
1.7343148 0.26678199 1.3827
1.6918532 0.26378435 1.3983551
0.49288732 0.44226599 1.3964829
0.64131027 0.42562252 1.4160782
1.6791129 0.26485273 1.4378685
0.80824 0.39569381 1.4388839
4.1671968 -0.11135844 1.4495314
0.88209552 0.39287591 1.44981
0.914042 0.39656845 1.4452415
0.84459281 0.40176934 1.444211
0.85682166 0.39198983 1.4645633
0.63174695 0.43448418 1.4600364
0.85425901 0.40126932 1.5185912
0.83824563 0.40513098 1.5515931
0.82410109 0.41028464 1.5896413
0.80268794 0.41240171 1.6154591
0.52139461 0.47435671 1.7484387
4.9190941 -0.19189738 2.1056144
0.72415185 0.47220802 2.4116278
0.76445395 0.47419262 2.5434499
0.80308819 0.47281432 2.669817
0.8527441 0.4751077 2.8322339
0.95843279 0.47743607 2.9925504
0.90825236 0.47742608 3.0137932
2.8935726 0.17672074 3.0287523
1.0239083 0.47957894 3.1940634
0.97338766 0.48105669 3.2268412
1.1023312 0.48353902 3.4354241
1.0455626 0.48396471 3.4629149
1.1719528 0.47956854 3.6496973
1.2405399 0.48250696 3.6453378
2.6755037 0.2702722 3.8578773
2.0452664 0.36399245 3.8863192
2.2505045 0.3372412 3.9369593
1.2661942 0.48075584 3.9397426
1.3433931 0.4847835 3.9440453
2.8680108 0.23948741 3.9838839
1.6373247 0.43771598 4.094244
