# .PCD v0.7 - Point Cloud Data file format
VERSION 0.7
FIELDS x y z
SIZE 4 4 4
TYPE F F F
COUNT 1 1 1
WIDTH 1306
HEIGHT 1
VIEWPOINT 0 0 0 1 0 0 0
POINTS 1306
DATA ascii
-2.2232773 -2.6766262 -1.3654115
-2.1225879 -2.6763134 -1.3539159
-1.6434168 -2.6235485 -1.3024932
-1.3488268 -2.5964088 -1.2712873
-1.2966386 -2.5870092 -1.2648188
-1.246871 -2.5803962 -1.2588024
-1.2016926 -2.5816076 -1.2557466
-1.0333363 -2.5490849 -1.2410924
0.38811183 -2.3987637 -1.2372829
0.44976351 -2.3947687 -1.213685
0.47152734 -2.4011343 -1.2087944
-0.68373239 -2.5224521 -1.194128
0.75187415 -2.3665874 -1.1955248
0.80812705 -2.3660717 -1.1909869
0.71603233 -2.3644097 -1.1840534
0.86261213 -2.3584149 -1.1806636
-0.56903201 -2.5132759 -1.1795093
0.95307028 -2.3439133 -1.1702969
0.99017322 -2.3395638 -1.173026
-0.41562724 -2.4908597 -1.1645209
0.70341945 -2.3708622 -1.1638685
1.0896446 -2.3386438 -1.1607302
-0.34313869 -2.4844632 -1.1534101
0.62067699 -2.3859816 -1.1590889
0.6701737 -2.3733575 -1.1539289
1.1281021 -2.3334243 -1.1599219
1.1644593 -2.3229823 -1.1557649
0.58595055 -2.3764641 -1.1417453
0.63613397 -2.3702879 -1.1407875
1.200153 -2.3106833 -1.1498507
1.2398328 -2.3055122 -1.1464612
0.60778034 -2.3864179 -1.1358227
0.65792614 -2.3793237 -1.1335455
1.413707 -2.3025517 -1.1322137
0.50782263 -2.3910406 -1.1298131
1.5641764 -2.2795553 -1.1210591
1.6130733 -2.2815099 -1.1131954
0.69548368 -2.3771088 -1.1086912
1.727946 -2.2648766 -1.1035869
0.63178807 -2.3843229 -1.0900445
0.71380597 -2.375571 -1.0955676
1.8527998 -2.2552855 -1.0922145
1.9211107 -2.2351944 -1.0867054
0.65052378 -2.3854353 -1.0792178
0.59745884 -2.3741343 -1.0738002
0.69715768 -2.3697655 -1.0708854
0.71720868 -2.3762143 -1.061142
2.1403918 -2.2194223 -1.0636655
2.229784 -2.2136607 -1.0587832
0.65395808 -2.3837595 -1.0447472
0.63226414 -2.3692081 -1.0499963
0.69786733 -2.3620865 -1.0335197
0.57214922 -2.3765717 -1.0299627
0.59024417 -2.3795052 -1.0209038
0.66644293 -2.365206 -1.025349
0.63699579 -2.3734736 -1.0186276
0.68563259 -2.3717182 -1.0160466
2.7392225 -2.1543388 -1.0123863
0.68720084 -2.3706334 -0.98225653
2.997999 -2.1237063 -0.9880147
3.151957 -2.0973978 -0.97680664
0.70360351 -2.370002 -0.969652
0.24217665 -2.4259317 -0.94728225
0.49668601 -2.3917472 -0.93540317
0.58416051 -2.3845108 -0.9372685
0.64472026 -2.3803973 -0.92378706
0.26621589 -2.4221909 -0.91378665
0.33468229 -2.416784 -0.91388828
0.66160643 -2.3852258 -0.91391999
0.23006693 -2.4306142 -0.90208811
0.64621979 -2.3846784 -0.89350128
0.27458271 -2.4274156 -0.88787627
4.1223497 -2.0115056 -0.88558847
0.23839699 -2.4299805 -0.87464589
0.31794414 -2.4214363 -0.87028396
0.58874792 -2.3923554 -0.87768102
0.65833336 -2.3740063 -0.87808877
0.26706052 -2.4265931 -0.86472529
0.28114709 -2.4239628 -0.85905874
0.29489768 -2.419452 -0.85251087
0.2458678 -2.4291177 -0.84723103
0.21147056 -2.4302866 -0.83268553
0.33728871 -2.4200881 -0.83602506
0.22556196 -2.4333229 -0.82988483
0.31453478 -2.4216352 -0.82022417
0.49223655 -2.3959942 -0.82590532
0.65476668 -2.3708308 -0.81479251
0.67213053 -2.3840411 -0.80715966
0.698789 -2.3716695 -0.80952537
0.29727119 -2.4254558 -0.77749527
0.66833013 -2.3812146 -0.77569735
5.4577909 -1.8531747 -0.7733053
0.19303766 -2.4278867 -0.76389301
0.2057426 -2.4290423 -0.76076651
0.23110974 -2.4323218 -0.75408018
0.58456928 -2.391521 -0.75685447
0.24282183 -2.4248829 -0.74775416
0.31274173 -2.420351 -0.74353898
0.66552824 -2.384624 -0.74660254
0.21141487 -2.4279983 -0.73454064
0.18148945 -2.4338028 -0.72079456
0.24731581 -2.4257641 -0.72178078
0.29153723 -2.4229069 -0.72824138
0.582582 -2.3951821 -0.7287662
0.20533967 -2.4361382 -0.71466953
0.19297892 -2.4292009 -0.71625423
0.25954407 -2.4288638 -0.71814656
0.22829536 -2.430799 -0.70556623
0.21634863 -2.4276989 -0.70865017
0.6688804 -2.3695881 -0.70070016
0.186804 -2.4313631 -0.69471973
0.1983014 -2.4325376 -0.69164842
0.61620939 -2.3859243 -0.69371462
0.22055592 -2.4281528 -0.68308926
0.28487611 -2.4242628 -0.68095177
0.18099007 -2.4381502 -0.6744442
0.2314271 -2.4245214 -0.67812693
0.69181651 -2.3684969 -0.67581928
0.67620182 -2.3757265 -0.66125828
0.17412253 -2.4302328 -0.65049422
0.22422452 -2.4312992 -0.65833795
0.48437613 -2.3936851 -0.65543365
0.20574576 -2.4289541 -0.64007741
0.24558783 -2.4298327 -0.64957446
0.26665193 -2.4283869 -0.6400196
0.29673991 -2.4211493 -0.64885271
0.15816295 -2.4393201 -0.63373882
0.16837385 -2.4375932 -0.6304462
0.27684495 -2.4257402 -0.63447976
0.32791567 -2.4171321 -0.6309334
0.48313046 -2.4065199 -0.63158798
0.17873754 -2.4387805 -0.62765783
0.18883865 -2.4370613 -0.62398314
0.64235365 -2.3802197 -0.6296944
0.15189615 -2.4328911 -0.61035079
0.21882336 -2.4328997 -0.61206543
0.20776556 -2.4210217 -0.61311734
0.25693908 -2.4243333 -0.61820418
0.30680817 -2.4178367 -0.61675489
0.67899919 -2.372349 -0.61976767
0.16183086 -2.4331067 -0.60762805
0.17213361 -2.4391603 -0.60605741
0.22837636 -2.428288 -0.6069746
0.27703264 -2.423878 -0.60844684
0.19114599 -2.4308598 -0.59767658
0.20096487 -2.4320641 -0.59443259
0.18063501 -2.4209085 -0.59873497
0.24806261 -2.4278123 -0.59826732
0.58409142 -2.3943899 -0.59531015
0.14625271 -2.4359708 -0.58928919
0.15544632 -2.430342 -0.58536249
0.16534407 -2.4364095 -0.58384979
0.62058711 -2.3918138 -0.58889002
0.2485202 -2.430382 -0.57373714
0.17399278 -2.4249425 -0.57829231
0.18323873 -2.4232235 -0.57471228
0.19272918 -2.4254062 -0.57180524
0.23889618 -2.4281795 -0.57767916
0.6538527 -2.3758621 -0.577573
0.1449123 -2.4340844 -0.56590921
0.16807829 -2.4395261 -0.56008929
0.21201867 -2.4346578 -0.56648791
0.26643869 -2.4241083 -0.56301063
0.31423867 -2.4239092 -0.56155348
0.30445871 -2.4197342 -0.56630909
0.57449383 -2.3846748 -0.56641412
0.63671738 -2.379437 -0.56319475
0.6915769 -2.3757908 -0.56802386
6.4605546 -1.7536855 -0.56914729
0.23919216 -2.4324973 -0.55373311
0.22901408 -2.4205451 -0.55548358
0.28509176 -2.4275835 -0.55367702
0.62177169 -2.39134 -0.55065387
0.13501307 -2.4425256 -0.5473423
0.20342898 -2.4326694 -0.54522771
0.14281212 -2.4251401 -0.54130179
0.19360229 -2.4207084 -0.54636234
0.25664175 -2.4281623 -0.54378307
0.29309064 -2.4191208 -0.54661906
0.16062061 -2.4314632 -0.53713697
0.17834383 -2.4378033 -0.53228182
0.16881743 -2.4248495 -0.53282976
0.32014722 -2.4239185 -0.53072363
0.57598782 -2.3865719 -0.53022122
0.67953795 -2.3668547 -0.53915024
0.14607359 -2.4425347 -0.52081895
0.13710836 -2.4325082 -0.52141041
0.18657024 -2.4331551 -0.52804321
0.19510216 -2.4334025 -0.52461809
0.20366259 -2.434633 -0.5212217
0.23834078 -2.432729 -0.52911675
0.24565382 -2.4203105 -0.52221805
0.66432631 -2.3798614 -0.52768743
0.68972152 -2.3711004 -0.52756238
0.21175152 -2.4309783 -0.51671124
0.21931674 -2.4224386 -0.51111007
0.25474188 -2.4264479 -0.51883245
0.2629596 -2.4247813 -0.5137496
0.30800804 -2.4250574 -0.51203096
0.29813394 -2.413053 -0.51527619
0.67296189 -2.3793943 -0.51538581
0.131643 -2.4446092 -0.50235045
0.18671136 -2.4329545 -0.5038501
0.17012867 -2.4295211 -0.50971085
0.22794735 -2.4266205 -0.50780708
0.27879807 -2.4185395 -0.50257045
0.47487172 -2.3897836 -0.50669152
0.68299264 -2.3846114 -0.50404757
0.21064132 -2.430794 -0.49250564
0.19389126 -2.4214497 -0.49820191
0.20215799 -2.4246492 -0.4951638
0.25259876 -2.4294214 -0.49505812
0.28754166 -2.4237278 -0.49832502
0.29458579 -2.4152551 -0.49136251
0.62709832 -2.3806958 -0.49963415
0.57349187 -2.3787415 -0.49272397
0.12537637 -2.4418006 -0.48049617
0.11749057 -2.4376411 -0.48194742
0.17047091 -2.4310701 -0.48610303
0.22645891 -2.4313421 -0.48454592
0.26781318 -2.4231703 -0.48428848
0.31172723 -2.4256682 -0.48205447
0.63550001 -2.38118 -0.48816812
0.68637663 -2.367147 -0.48813057
0.13309471 -2.4430139 -0.47836691
0.15569589 -2.4407797 -0.4700571
0.14761324 -2.4316876 -0.47124833
0.19394492 -2.4347832 -0.47671697
0.13988367 -2.4284995 -0.47331518
0.23352595 -2.4237857 -0.47893107
0.31919503 -2.4230764 -0.47574002
0.24057552 -2.4172163 -0.47336763
0.47511354 -2.3915629 -0.47374049
0.11195415 -2.4415092 -0.46128523
0.17399244 -2.4360008 -0.46162376
0.20827645 -2.424525 -0.46747571
0.26401663 -2.4249856 -0.46067709
0.25598642 -2.4197755 -0.46460548
0.2901918 -2.4162927 -0.46753374
0.57454705 -2.3927517 -0.46003395
0.62467706 -2.3817644 -0.46321455
0.64892089 -2.3717194 -0.46286637
0.12667067 -2.4439385 -0.45735484
0.14094006 -2.4404752 -0.45186797
0.13350667 -2.4362957 -0.45368883
0.18515642 -2.4378674 -0.45697767
0.19207805 -2.4332199 -0.45269656
0.3134366 -2.4231782 -0.45188299
0.27069882 -2.4184437 -0.4545798
0.63421005 -2.3889492 -0.45294374
0.68294948 -2.3686833 -0.45060056
6.4405966 -1.7456067 -0.45350942
0.1064092 -2.4451904 -0.44059119
0.16171369 -2.4313748 -0.44197869
0.14746828 -2.4298868 -0.44745195
0.15433025 -2.4261966 -0.44405517
0.19875835 -2.4266114 -0.44796073
0.20559199 -2.4229589 -0.44359228
0.24538992 -2.4279463 -0.44696993
0.25187337 -2.421387 -0.44124383
0.47505596 -2.3999612 -0.4424825
0.69382912 -2.3806012 -0.44007131
0.12025209 -2.4446671 -0.43636057
0.11273236 -2.431612 -0.43640122
0.12679225 -2.4380002 -0.43302399
0.13363707 -2.4382417 -0.43065855
0.16894588 -2.4345884 -0.43943426
0.1758664 -2.4338682 -0.43611196
0.22419468 -2.434504 -0.43543857
0.26493371 -2.4122167 -0.43008706
0.29959661 -2.4197903 -0.43351671
0.61445141 -2.3869259 -0.43961638
0.63804853 -2.3751638 -0.43886232
0.66353917 -2.3699131 -0.43847165
0.16070719 -2.4402409 -0.42002511
0.1960617 -2.4287872 -0.42488804
0.2027474 -2.4280906 -0.42104506
0.23408243 -2.4290609 -0.42815113
0.28016245 -2.4256542 -0.42201632
0.27207667 -2.4145143 -0.42542759
0.67491239 -2.3847196 -0.42870498
0.61913896 -2.3769295 -0.42658231
0.10392006 -2.443368 -0.41810066
0.12351727 -2.4435844 -0.41182935
0.11351927 -2.4382858 -0.4143385
0.16715597 -2.4375479 -0.41654798
0.2096239 -2.4303548 -0.41752943
0.25466013 -2.4319904 -0.41485587
0.17298529 -2.4269705 -0.41175202
0.24694042 -2.4218295 -0.41799507
0.57699716 -2.3898792 -0.41435319
0.68215466 -2.385272 -0.41634217
0.65186286 -2.3733778 -0.41485542
0.13925576 -2.4372911 -0.4047848
0.14568304 -2.4385359 -0.40230146
0.18008441 -2.4351382 -0.40967348
0.18590143 -2.4265449 -0.4049474
0.19185326 -2.420917 -0.40055615
0.2226942 -2.4289947 -0.40919793
0.26693147 -2.423821 -0.4038054
0.29581577 -2.4167304 -0.40710339
0.20581436 -2.4372962 -0.39545208
0.16369347 -2.4264987 -0.39182562
0.24465165 -2.424222 -0.39305061
0.30637884 -2.4231791 -0.39960009
0.27902994 -2.4176502 -0.39260253
0.6144644 -2.3814883 -0.39238417
0.1377615 -2.443814 -0.38269496
0.17345184 -2.4343276 -0.38815188
0.18891977 -2.4385152 -0.38017815
0.25465924 -2.430645 -0.38691413
0.18206157 -2.4273534 -0.38214064
0.21708046 -2.4241147 -0.38556352
0.22346994 -2.4273973 -0.38185373
0.26011068 -2.4241049 -0.38111711
0.28579387 -2.421952 -0.38789761
0.29132405 -2.4164295 -0.38165846
0.31829661 -2.4170856 -0.38694572
0.67545098 -2.3865232 -0.38026986
0.14299826 -2.4312205 -0.37830549
0.15491806 -2.4337416 -0.3730067
0.20045742 -2.4341917 -0.3721897
0.22898005 -2.4218109 -0.37678358
0.2356272 -2.429054 -0.37337238
0.27265444 -2.4287758 -0.37167177
0.26545379 -2.417573 -0.37522584
0.30362904 -2.4181938 -0.37065572
0.60393363 -2.3930209 -0.37118125
0.16062775 -2.4320438 -0.36978143
0.17501165 -2.4327717 -0.36187255
0.21189319 -2.4318721 -0.36402705
0.20550326 -2.424633 -0.3670361
0.24409649 -2.4256332 -0.36605814
0.30959225 -2.4185979 -0.36490798
0.47196433 -2.3935468 -0.36935249
0.57587695 -2.3839943 -0.36919847
0.13475181 -2.4363012 -0.35887808
0.14027165 -2.435581 -0.35616481
0.18940514 -2.4374948 -0.35379565
0.19495605 -2.4378142 -0.35015705
0.22333081 -2.4325454 -0.3558113
0.14545467 -2.4299152 -0.35271242
0.18320978 -2.4292705 -0.35629979
0.21694307 -2.4243035 -0.35893801
0.31609881 -2.4239278 -0.35970017
0.25717673 -2.4137237 -0.3525584
0.2832137 -2.4187095 -0.35976204
0.32086134 -2.4164848 -0.35268116
0.15644176 -2.4314742 -0.34712955
0.15057138 -2.4242549 -0.34916279
0.16692686 -2.4281068 -0.3405019
0.19916387 -2.4223166 -0.34442562
0.20489921 -2.4266067 -0.34108225
0.23942834 -2.4276886 -0.34191477
0.26994446 -2.4292874 -0.34449753
0.29559574 -2.4273903 -0.34989852
0.23291376 -2.4164593 -0.3450256
0.32680553 -2.4188843 -0.34685206
0.13691396 -2.4417484 -0.33439678
0.18297501 -2.4330087 -0.33098337
0.1309725 -2.4275913 -0.3352786
0.21272832 -2.4251451 -0.33487123
0.24454333 -2.4250984 -0.33695742
0.27532294 -2.4286993 -0.33921862
0.28027987 -2.4251611 -0.33347428
0.2490726 -2.4175785 -0.33130515
0.31103098 -2.419801 -0.33161876
0.47051761 -2.3923388 -0.33006647
0.64379424 -2.3776977 -0.33372614
0.68814337 -2.3673515 -0.33990434
0.14648491 -2.4304221 -0.32758811
0.18836077 -2.4363072 -0.32779032
0.19300504 -2.4307013 -0.32344842
0.23143245 -2.4323521 -0.32076684
0.22568139 -2.4250546 -0.32431948
0.25669941 -2.4161935 -0.32384041
0.28399226 -2.4117699 -0.32645288
0.31457463 -2.4064579 -0.32403553
0.57359439 -2.3847411 -0.32611176
0.62480336 -2.3838563 -0.32446367
0.64994848 -2.3802361 -0.32209376
0.13233125 -2.4388101 -0.31176502
0.16152616 -2.4313259 -0.31874266
0.19765019 -2.4260929 -0.31913558
0.24068376 -2.4252148 -0.31083694
0.26490644 -2.4217403 -0.31698829
0.30080479 -2.4249129 -0.31119493
0.32711065 -2.4241183 -0.31387562
0.26906323 -2.4142568 -0.31099343
0.32080773 -2.4147906 -0.31896746
0.67708546 -2.3831232 -0.31976101
0.62802804 -2.375828 -0.31187212
-0.12668781 -2.4630828 -0.30578575
0.14137626 -2.4314554 -0.30562273
0.17637344 -2.4352658 -0.30933145
0.21318059 -2.4360821 -0.30831918
0.13638234 -2.4261966 -0.30776072
0.14593607 -2.4297726 -0.30263352
0.18260318 -2.4233816 -0.30277154
0.27476981 -2.421598 -0.30658963
0.21642122 -2.418633 -0.30222952
0.65513885 -2.3799105 -0.30998978
-0.14449985 -2.4569349 -0.29899761
0.15765443 -2.4340329 -0.29564211
0.1502649 -2.4251189 -0.29923758
0.19410352 -2.4227786 -0.29352269
0.22589047 -2.4204006 -0.29381919
0.23122934 -2.4287248 -0.29024771
0.28671518 -2.4222169 -0.29312277
0.31507304 -2.4233518 -0.29330313
0.25402302 -2.4155655 -0.29541883
0.66222119 -2.3872676 -0.29867911
0.13974938 -2.430629 -0.28102416
0.17793638 -2.4390342 -0.28131416
0.13308838 -2.4266896 -0.28466773
0.16597208 -2.4242713 -0.28827122
0.17272632 -2.4267704 -0.28354058
0.19856943 -2.4221554 -0.28961775
0.20765403 -2.4249005 -0.28194442
0.29433003 -2.4283452 -0.28537986
0.32410777 -2.4223633 -0.28092551
0.2344421 -2.4152722 -0.28431928
0.26315483 -2.4154439 -0.28538531
0.31848469 -2.4139757 -0.28622323
0.59418118 -2.3862622 -0.28284964
0.66728944 -2.3879259 -0.28645974
0.69029689 -2.3764837 -0.28110671
0.15241088 -2.4316008 -0.27243236
0.14579301 -2.425643 -0.27628559
0.21598953 -2.4217324 -0.27332219
0.30222902 -2.4204216 -0.27305967
0.24562213 -2.4183233 -0.27291277
0.61769146 -2.3782532 -0.27977738
0.66924155 -2.3780499 -0.27302432
0.161158 -2.4402344 -0.2670193
0.19004987 -2.4312098 -0.2696636
0.25753018 -2.4323261 -0.26199207
0.12883133 -2.4289963 -0.26211354
0.16435178 -2.4276721 -0.26261657
0.19584501 -2.4268315 -0.26351956
0.22076625 -2.4280934 -0.26965374
0.28159946 -2.4252105 -0.26521546
0.22413898 -2.4195919 -0.26447299
0.30971169 -2.4125409 -0.26046619
0.57941669 -2.3925004 -0.26353067
0.64872801 -2.3813295 -0.26514989
0.6211822 -2.3740983 -0.26783121
0.13297527 -2.4332924 -0.25988054
0.17639294 -2.4317646 -0.25279871
0.233605 -2.4343445 -0.25684935
0.1365404 -2.42765 -0.25667247
0.16827467 -2.4270408 -0.25924662
0.17221598 -2.4274113 -0.25588691
0.23645644 -2.4228981 -0.25118911
0.2642931 -2.4204025 -0.25069368
0.25996229 -2.4169514 -0.25550443
0.28839311 -2.413343 -0.25302216
0.3138642 -2.4130614 -0.25448602
0.62970901 -2.390192 -0.25784919
0.65375233 -2.3839383 -0.25333729
0.6717549 -2.371063 -0.25988969
0.17987661 -2.4271841 -0.2488406
0.21293753 -2.4207616 -0.24475734
0.24036565 -2.4233587 -0.24653709
0.29578328 -2.425983 -0.24563812
0.32305789 -2.4230249 -0.24306899
0.21635838 -2.4172335 -0.24019448
0.31779617 -2.4126053 -0.2483342
0.63408291 -2.3908808 -0.24617821
0.67914218 -2.3823068 -0.24849798
0.13411215 -2.433639 -0.23221938
0.16221815 -2.4241717 -0.23529431
0.19084929 -2.4254196 -0.23757172
0.2204175 -2.4216557 -0.23623256
0.25136313 -2.4218287 -0.23186925
0.19399886 -2.4198821 -0.23326199
0.27121368 -2.4134724 -0.23960011
0.29966897 -2.4109523 -0.23564142
0.61094439 -2.3841195 -0.23775649
0.63573998 -2.3819458 -0.23355339
0.68176937 -2.3772633 -0.23542605
0.13892636 -2.4281967 -0.2276215
0.16945337 -2.4279408 -0.22889574
0.20507477 -2.4281666 -0.22192524
0.19747536 -2.419322 -0.22929516
0.22718063 -2.4176271 -0.22700776
0.25602496 -2.415648 -0.22385025
0.27923164 -2.4194591 -0.229324
0.28261575 -2.4180129 -0.22370063
0.30767718 -2.4169972 -0.22431666
0.61301917 -2.3770959 -0.22572999
0.65877467 -2.372853 -0.22795463
0.68471676 -2.3741508 -0.22249565
0.15594357 -2.43906 -0.21335448
0.18429223 -2.426363 -0.21264447
0.20787629 -2.4216745 -0.21728353
0.21128212 -2.4231412 -0.2131874
0.28993344 -2.4220858 -0.21279372
0.31348228 -2.4218097 -0.21561602
0.2856802 -2.414597 -0.21785742
0.59516168 -2.3913748 -0.21958117
0.57185411 -2.3831909 -0.21155573
0.66425514 -2.3793457 -0.2162399
0.12955554 -2.4335194 -0.20786461
0.13411504 -2.434581 -0.20382175
0.19280124 -2.434962 -0.20370989
0.27257651 -2.4309576 -0.20152201
0.21800308 -2.4270995 -0.20485483
0.22105084 -2.4266105 -0.20040862
0.24098706 -2.4216058 -0.20867845
0.31899273 -2.4256566 -0.20667054
0.3218998 -2.4232917 -0.20024841
0.26771429 -2.4155278 -0.20573926
0.66822821 -2.3810453 -0.20401503
0.59531385 -2.3775716 -0.20733495
0.68853897 -2.3748868 -0.20983906
0.16773862 -2.4317856 -0.19955842
0.1957227 -2.4334469 -0.19966179
0.20170371 -2.4344263 -0.19165586
0.17328013 -2.4277084 -0.19227627
0.25026187 -2.4212301 -0.19396745
0.32431227 -2.4179716 -0.19356611
0.039027296 -2.4537461 -0.18911852
0.054060142 -2.4502645 -0.1828426
0.046471089 -2.4451671 -0.1858211
0.051552303 -2.4490039 -0.18392496
0.15498103 -2.430223 -0.18092307
0.17671487 -2.4361365 -0.18922566
0.14936073 -2.4263527 -0.18703786
0.20532194 -2.4267368 -0.18494228
0.30309162 -2.4264097 -0.18982285
0.32766747 -2.4205761 -0.18738449
0.33079705 -2.4222038 -0.1810672
0.22904469 -2.4172606 -0.18618976
0.25558719 -2.4164045 -0.18355496
0.27713364 -2.4172363 -0.18969542
0.28011063 -2.417829 -0.18422195
0.13025096 -2.4432409 -0.17809987
0.15807936 -2.4376519 -0.17810132
0.16171539 -2.4343708 -0.17288893
0.21499856 -2.4301021 -0.17018203
0.13206014 -2.429702 -0.17452809
0.23488206 -2.4203565 -0.17704295
0.26174402 -2.4225433 -0.17361799
0.21149302 -2.4196072 -0.17389995
0.23722036 -2.4169538 -0.1720781
0.28360659 -2.4118023 -0.17545649
0.30740628 -2.4147794 -0.17706089
0.46843761 -2.3925645 -0.17594656
0.1396859 -2.4349999 -0.16615273
0.13681112 -2.4265785 -0.16863093
0.24093565 -2.4284663 -0.16794546
0.2663205 -2.4168191 -0.16273133
0.28772542 -2.4127393 -0.167033
0.2902402 -2.4123888 -0.16128629
0.31230697 -2.4111199 -0.16464895
0.052514907 -2.4453158 -0.15905996
0.054454837 -2.4396081 -0.15756263
0.17500702 -2.4361496 -0.15360038
0.1969012 -2.429285 -0.15797523
0.24671416 -2.4245129 -0.15542394
0.2945593 -2.4279139 -0.15637307
0.22368555 -2.4184923 -0.15164492
0.27077159 -2.4131281 -0.15179083
0.58989102 -2.3946898 -0.15796283
-0.16033332 -2.4583795 -0.14462668
0.1551467 -2.4324288 -0.14399311
0.1812024 -2.4318266 -0.14218298
0.20084734 -2.4214618 -0.14934972
0.22851786 -2.4227037 -0.14263132
0.32092011 -2.4210734 -0.14651744
0.24974126 -2.4199886 -0.14767911
0.29672545 -2.4165258 -0.14696416
0.32287425 -2.4188049 -0.14006637
0.58977509 -2.3838334 -0.14628311
0.13236235 -2.4364941 -0.13999064
0.20987441 -2.4288499 -0.13271843
0.30330133 -2.4256952 -0.13255303
0.25392744 -2.4183064 -0.13742614
0.27720004 -2.4111588 -0.13524733
0.32407266 -2.411598 -0.13334371
0.59348136 -2.3894849 -0.13550438
0.058774374 -2.4471364 -0.12824477
0.14222023 -2.4308891 -0.12323257
0.28261667 -2.4234736 -0.12461293
0.23624597 -2.4193375 -0.12348663
0.30418316 -2.416497 -0.12610452
0.32697102 -2.4107161 -0.1236805
0.59464264 -2.3854473 -0.12417323
0.61715311 -2.3868454 -0.12854882
0.6818819 -2.370373 -0.12804835
0.16830613 -2.430393 -0.11967159
0.23939276 -2.4329476 -0.1191991
0.26315391 -2.4319828 -0.11714188
0.14792781 -2.4294009 -0.1120607
0.26328114 -2.4168041 -0.11121741
0.28542402 -2.4159884 -0.11292995
0.30736518 -2.41202 -0.11377476
0.3300679 -2.4128311 -0.11406861
0.61841303 -2.3837979 -0.11685707
0.14933568 -2.427007 -0.108719
0.17274159 -2.4232874 -0.10844581
0.19888344 -2.428144 -0.10200392
0.24230537 -2.4273868 -0.10913888
0.26547518 -2.4144301 -0.10310283
0.28844696 -2.413518 -0.10134381
0.33137745 -2.4096372 -0.10742463
0.15555052 -2.4345107 -0.095593758
0.15634513 -2.426192 -0.091922753
0.22438487 -2.4220526 -0.091912478
0.24498272 -2.415288 -0.096247762
0.28959066 -2.4103172 -0.095442466
0.46864799 -2.4038618 -0.090449452
0.57596701 -2.3845339 -0.098263763
0.69024938 -2.3805988 -0.09023609
0.16001108 -2.4262502 -0.081505969
0.20548441 -2.4267693 -0.080671698
0.31373394 -2.4070969 -0.085824326
0.46851113 -2.3958793 -0.081244424
0.57932079 -2.3921969 -0.087681018
0.62401789 -2.386354 -0.082103886
0.66550326 -2.3730843 -0.087197646
0.13981435 -2.4419365 -0.076930568
0.13842267 -2.4362612 -0.079932898
0.14123043 -2.4313669 -0.070339844
0.16144061 -2.4309502 -0.078097805
0.18615143 -2.4303181 -0.070068926
0.27361292 -2.431324 -0.079105847
0.31903887 -2.4245245 -0.070601277
0.29401472 -2.4136977 -0.07800144
0.31612054 -2.4108009 -0.076549523
0.58111686 -2.3940392 -0.076836303
0.14340156 -2.4449346 -0.065801322
0.14364195 -2.4265878 -0.060577866
0.18704088 -2.4230118 -0.063897006
0.23141851 -2.422745 -0.063549973
0.25238281 -2.4205785 -0.06838996
0.29752046 -2.424289 -0.066418521
0.29728428 -2.4142206 -0.060233407
0.57879114 -2.3793647 -0.065537184
0.14516842 -2.4261332 -0.054029167
0.25395474 -2.4172683 -0.057950206
0.27717575 -2.4186187 -0.050939877
0.31933287 -2.4113629 -0.057616904
0.32029617 -2.4122381 -0.051277481
0.5839507 -2.3967919 -0.055011075
0.25686496 -2.4299245 -0.047722962
0.25629374 -2.4178743 -0.042282525
0.29844984 -2.4100046 -0.048207182
0.58382189 -2.3928409 -0.043963846
0.14879966 -2.4260671 -0.034051564
0.21438795 -2.4299855 -0.03639305
0.27909344 -2.4183111 -0.034037683
0.30045909 -2.4157686 -0.036283303
0.23765229 -2.4327126 -0.024713891
0.27978843 -2.420223 -0.028400324
0.32239559 -2.4099271 -0.025683139
0.58209133 -2.3810902 -0.021897554
0.21577853 -2.4261465 -0.015941992
0.23730968 -2.425683 -0.019733351
0.25917712 -2.4224362 -0.010621143
0.27990705 -2.4151456 -0.017024424
0.32376868 -2.4157937 -0.012876729
0.32247925 -2.4078963 -0.019255539
0.58282429 -2.3830144 -0.010958594
0.6059221 -2.3855977 -0.011361768
0.21627589 -2.4285789 -0.0091229975
0.2381274 -2.4295824 -0.0098860692
0.2816067 -2.4270136 -0.0057008215
0.32378614 -2.4147816 -0.0064370665
-0.19807905 -2.4722233 0.0026721244
0.15146479 -2.4323878 0.005144163
0.27979571 -2.4111164 0.0056692106
0.30187038 -2.4135368 0
0.32391667 -2.4157732 0.006439345
0.66969937 -2.369858 0
0.15134099 -2.435812 0.013721516
0.19441764 -2.4314523 0.016734047
0.23721406 -2.4246876 0.019726664
0.25908411 -2.423465 0.015933141
0.28170431 -2.4290214 0.011407808
0.23689313 -2.4186671 0.01477016
0.30182177 -2.4165761 0.018172927
0.32312375 -2.4118447 0.016070686
0.58399135 -2.3878765 0.010978965
0.60471261 -2.3807461 0.011340656
0.67146778 -2.3766103 0.012505871
0.1067024 -2.4454551 0.029327251
0.15066421 -2.4346578 0.022258362
0.14980605 -2.4288158 0.027316656
0.19383813 -2.4275262 0.020880647
0.23610938 -2.4208429 0.029519876
0.32265601 -2.4119098 0.025701348
0.58162475 -2.3791456 0.021881262
0.14915808 -2.4401844 0.037579797
0.1706595 -2.4265201 0.034069359
0.21462162 -2.4268944 0.031836342
0.23611598 -2.4259088 0.034475517
0.27954379 -2.4222856 0.034085017
0.30217853 -2.4256186 0.030359205
0.27808955 -2.4144256 0.039629221
0.32180187 -2.4130385 0.03852652
0.32156298 -2.4070144 0.032055121
0.58188111 -2.382097 0.032850213
-0.21104051 -2.4661577 0.048111212
0.14892791 -2.4453316 0.041011631
0.19069554 -2.4241941 0.045653861
0.2571218 -2.4258304 0.042398904
0.23351997 -2.4182937 0.048990037
0.25531635 -2.4150066 0.047477689
0.29857054 -2.4109972 0.04822414
0.30034605 -2.4198275 0.042361978
0.321033 -2.4121356 0.044902015
0.58312327 -2.3899238 0.043914992
0.60309017 -2.3798788 0.045311213
0.64598787 -2.3718562 0.048310913
0.16745122 -2.4243102 0.052636765
0.21159343 -2.4285388 0.054331601
0.31959072 -2.4133458 0.057657745
0.5816251 -2.3870683 0.054807615
0.67233342 -2.3853858 0.050153174
0.18723053 -2.4255042 0.063947111
0.2083603 -2.4221151 0.067476831
0.27438757 -2.4180543 0.067678906
0.29608488 -2.4123783 0.066139475
0.31878716 -2.4144669 0.064024948
0.16289085 -2.4366603 0.074678332
0.20686838 -2.4295216 0.076402739
0.25039753 -2.4229476 0.078740671
0.27237201 -2.4148386 0.075891823
0.5785681 -2.383343 0.076523356
0.20376621 -2.4362462 0.089555748
0.15772113 -2.4278615 0.088525116
0.24918844 -2.4231575 0.083857313
0.29408601 -2.424799 0.084210366
0.24730368 -2.4174135 0.088765047
0.26921552 -2.41484 0.089599989
0.33684555 -2.4159791 0.087889723
0.64453661 -2.3788433 0.08462327
0.66656429 -2.3769388 0.08732792
0.10760342 -2.4392946 0.097743101
0.15553473 -2.434515 0.095584057
0.19992244 -2.4228623 0.097631209
0.22363275 -2.4292827 0.096786574
0.24520616 -2.4248605 0.099081822
0.28994212 -2.4132948 0.095543243
0.33476186 -2.4112113 0.094351992
0.3119185 -2.4093678 0.09522517
0.46694714 -2.4030235 0.099351734
0.62233776 -2.3854885 0.093726657
0.64177579 -2.3741162 0.096458495
0.15251651 -2.442394 0.10428103
0.17379022 -2.4382412 0.10898011
0.26609087 -2.4274714 0.106273
0.2412319 -2.4164469 0.10872681
0.28821388 -2.4115329 0.10127255
0.31066331 -2.4115608 0.10148495
0.3336575 -2.4143789 0.10105011
0.33124366 -2.4086471 0.10738628
0.5758965 -2.3914704 0.10936026
0.59688067 -2.3793526 0.10157616
0.19442764 -2.4321096 0.1145554
0.17152557 -2.4286346 0.11232799
0.23814191 -2.4200189 0.11866815
0.33126575 -2.4217436 0.11443483
0.21550234 -2.4186773 0.11687056
0.23957907 -2.4167347 0.11365353
0.26216105 -2.4144578 0.11377304
0.30773759 -2.4149942 0.11389577
0.21407178 -2.4331138 0.12413649
0.19015321 -2.4218645 0.12223248
0.26061615 -2.4253156 0.12215306
0.28147894 -2.413548 0.1241762
0.30406052 -2.4155056 0.12605989
0.66136736 -2.3772869 0.12443108
0.18549761 -2.434979 0.13463493
0.18278503 -2.4254274 0.13806313
0.25636896 -2.4219551 0.13244598
0.23123679 -2.4181876 0.13536957
0.30025503 -2.4180515 0.1381682
0.56994671 -2.3830187 0.13050194
0.66106772 -2.3841755 0.13708495
0.15370096 -2.4428761 0.14778912
0.15552267 -2.4384103 0.14427641
0.15684609 -2.4269769 0.14040568
0.20560303 -2.4266253 0.14120497
0.22698176 -2.4179184 0.14471029
0.25151703 -2.4156637 0.14239976
0.27554962 -2.415442 0.14098574
0.29606777 -2.4110727 0.14667635
0.56820047 -2.3851333 0.14130221
0.65611041 -2.3746958 0.1488166
0.15158179 -2.4433651 0.15106793
0.24818207 -2.4273064 0.15308698
0.24504915 -2.4197323 0.1576494
0.29325804 -2.4170082 0.15576629
0.16818038 -2.4385798 0.16450921
0.16957009 -2.4241443 0.16018744
0.23977125 -2.4165435 0.16724581
0.24254319 -2.4191256 0.16253237
0.28795803 -2.4147222 0.16715153
0.29059213 -2.4153631 0.16145796
0.31268537 -2.4140909 0.16482541
0.33514601 -2.4136279 0.16751976
0.58700067 -2.3939164 0.16893321
0.65357655 -2.3748658 0.16101284
0.10369182 -2.4369016 0.17354229
0.15795186 -2.4356594 0.17798242
0.19021636 -2.4376209 0.17041998
0.16125745 -2.4273973 0.17248583
0.18662842 -2.4241636 0.17351486
0.20921455 -2.4240413 0.17845361
0.2120924 -2.426569 0.17431962
0.23554663 -2.4273117 0.17747453
0.28311872 -2.4194255 0.17875171
0.3086251 -2.4136138 0.17395294
0.3319549 -2.4099975 0.17381093
0.58137566 -2.3824825 0.17911047
0.15504374 -2.4312193 0.18098362
0.17685732 -2.4381273 0.18935393
0.18193997 -2.4321196 0.18159121
0.20669684 -2.4264977 0.18283892
0.25631064 -2.4233522 0.18400703
0.27690989 -2.4152534 0.18956095
0.32946855 -2.4123137 0.18041925
0.20162249 -2.4334319 0.19159009
0.24837585 -2.4325929 0.19972558
0.19810171 -2.4259751 0.19515252
0.22376005 -2.4231517 0.19569696
0.25096911 -2.4281778 0.19444448
0.27451739 -2.4206212 0.19538386
0.29818487 -2.4109521 0.19465712
0.32339874 -2.4110487 0.19308037
0.46531501 -2.4078007 0.19474426
0.58231062 -2.3992007 0.19118695
0.15853758 -2.4305084 0.20951533
0.16673237 -2.4390337 0.20176314
0.19280124 -2.434962 0.20370989
0.21549594 -2.4345539 0.20974801
0.18874834 -2.4225638 0.20670059
0.21747524 -2.421138 0.20442739
0.24269937 -2.4228611 0.20635608
0.26922926 -2.4294081 0.20676111
0.29187703 -2.4107709 0.20623137
0.3169446 -2.4098322 0.20548806
0.15272738 -2.4386618 0.21648541
0.15531477 -2.429106 0.21263114
0.18433046 -2.4268603 0.21268013
0.21153843 -2.426122 0.2134102
0.23450263 -2.4225729 0.2182159
0.26368487 -2.4236364 0.21421035
0.28533408 -2.4116263 0.21762395
0.31433624 -2.4151757 0.21204898
0.64478123 -2.388206 0.21028614
0.66583669 -2.3851132 0.21672344
0.17345913 -2.4363034 0.22608739
0.20113599 -2.4217522 0.2254944
0.22754852 -2.4215972 0.22732757
0.23115276 -2.4230723 0.22288564
0.25477442 -2.4203484 0.22675636
0.33428764 -2.4237344 0.22403699
0.28227374 -2.4150419 0.22346114
0.30792508 -2.4189751 0.22447765
0.32927194 -2.4132805 0.22959831
0.56833053 -2.3834531 0.2222463
0.66008538 -2.3776593 0.2283805
0.1627444 -2.4321277 0.23594417
0.16589113 -2.4265492 0.23217335
0.19269715 -2.4261284 0.2357039
0.22246672 -2.4243679 0.23424783
0.25207317 -2.4287689 0.23244426
0.27564847 -2.4199262 0.2347977
0.30232987 -2.4176531 0.23327288
-0.25052333 -2.4750662 0.24479282
0.18031321 -2.4331455 0.24936092
0.15531689 -2.4283929 0.24205108
0.18373901 -2.4285741 0.24532948
0.20978142 -2.4282696 0.24960531
0.21714737 -2.4261665 0.2409564
0.26823139 -2.4208932 0.24552891
0.29811376 -2.4292109 0.24304266
0.24361368 -2.4178813 0.24129279
0.27176201 -2.4184237 0.24002852
0.29228151 -2.4128647 0.2473316
0.31779617 -2.4126053 0.2483342
0.5609895 -2.3849862 0.24351175
0.68048483 -2.3871007 0.2489603
0.096212462 -2.4383347 0.25720626
0.17249477 -2.4313855 0.25624371
0.23722011 -2.4308295 0.25190127
0.17610797 -2.4277902 0.2524468
0.2059582 -2.4288394 0.25377405
0.23275997 -2.4254217 0.25603333
0.28967434 -2.424222 0.25402316
0.31512976 -2.4229381 0.25540552
0.25996229 -2.4169514 0.25550443
0.26418647 -2.4194121 0.25060421
0.28476146 -2.4167988 0.25891471
0.4622004 -2.4003828 0.25593245
0.58246011 -2.3873591 0.25218645
0.65504742 -2.3887446 0.25380868
0.1607684 -2.434273 0.26646292
0.19012657 -2.4322026 0.26975834
0.15635702 -2.4289589 0.26911551
0.1958034 -2.4263351 0.26347494
0.25293511 -2.4279051 0.26655576
0.28114656 -2.4212544 0.26483542
0.30608448 -2.4169698 0.26684418
0.31058621 -2.4194546 0.26112518
0.57987767 -2.3944368 0.26372635
0.6507867 -2.3890197 0.26594016
0.14889163 -2.442199 0.27643856
0.15308909 -2.4425302 0.27347669
0.22121133 -2.4330504 0.27013102
0.1768619 -2.4241462 0.27983528
0.18342662 -2.4266772 0.2747449
0.24626522 -2.4247599 0.27354896
0.27514493 -2.4244971 0.27323669
0.297672 -2.4189458 0.2787019
0.32715958 -2.4120224 0.27361411
0.57595098 -2.3966861 0.27473304
0.59751642 -2.3811193 0.27121356
0.2694957 -2.4327056 0.28199872
0.17272632 -2.4267704 0.28354058
0.20297484 -2.4215407 0.28562462
0.23966418 -2.423615 0.28054979
0.26411179 -2.424345 0.28630939
0.32002386 -2.4258108 0.28746963
0.23472685 -2.4182432 0.28462464
0.28807607 -2.4140501 0.28949574
0.32306728 -2.4144728 0.28011256
0.57184178 -2.3989482 0.28567204
0.63837343 -2.3771117 0.28855634
0.15056957 -2.4300816 0.29976529
0.19011556 -2.4303501 0.29807737
0.15503536 -2.4284122 0.29659471
0.19673285 -2.4274242 0.29208866
0.22167876 -2.4249587 0.29865846
0.23122934 -2.4287248 0.29024771
0.25712878 -2.4231977 0.29374933
0.31041104 -2.423862 0.29935884
0.56350029 -2.383796 0.29456416
0.65960681 -2.3776796 0.29756939
0.17651562 -2.4372489 0.3095504
0.18566954 -2.4329724 0.30202541
0.18050259 -2.4266796 0.30491278
0.21729706 -2.4285357 0.30331111
0.24518253 -2.4216595 0.30574429
0.25040156 -2.4260254 0.30143371
0.27465922 -2.4206104 0.30647901
0.23990798 -2.4173026 0.30994448
0.27862313 -2.413146 0.30032286
0.63581336 -2.3860762 0.30138549
0.16146089 -2.4303346 0.31862962
0.19820899 -2.4330246 0.31993359
0.23667005 -2.4347131 0.31652439
0.17098413 -2.4270053 0.31179398
0.20779978 -2.4297733 0.31169823
0.27058458 -2.4280844 0.31256884
0.29586348 -2.4254534 0.31697169
0.30080479 -2.4249129 0.31119493
0.32080773 -2.4147906 0.31896746
0.65721452 -2.3875809 0.31091392
-0.26047713 -2.4867792 0.32211024
0.14689973 -2.4373624 0.32840222
0.18843658 -2.4372978 0.32790706
0.1931607 -2.4326818 0.32367918
0.22332248 -2.4273441 0.32674119
0.25524142 -2.4268582 0.32758358
0.26032695 -2.42627 0.32256389
0.29024851 -2.4210725 0.32206833
0.5761081 -2.3953662 0.32744834
0.65020585 -2.3811948 0.3222138
0.18290126 -2.4320185 0.33086535
0.21268381 -2.4246507 0.33481216
0.24745736 -2.4277585 0.3349137
0.27994218 -2.4222023 0.33311215
0.30660114 -2.4272451 0.33842096
0.67304599 -2.3882301 0.33286434
0.16262582 -2.4436512 0.34558734
0.15688404 -2.438406 0.34799758
0.1972253 -2.4320433 0.3475365
0.23725697 -2.4334323 0.34490442
0.16685939 -2.4271166 0.34038019
0.2691865 -2.4223833 0.34362558
0.29488516 -2.4214814 0.34913653
0.29987663 -2.4169724 0.34290165
0.56596327 -2.3999918 0.34925905
0.14066789 -2.442513 0.3570548
0.14592521 -2.4378371 0.35372147
0.15142551 -2.4381187 0.35091406
0.18365319 -2.4352043 0.35706779
0.17764372 -2.4299541 0.35983565
0.21659316 -2.4203527 0.35841927
0.22577852 -2.4287686 0.35316479
0.25261104 -2.4242013 0.35878789
0.28862417 -2.4161515 0.35399115
0.31533924 -2.4180284 0.35891366
0.32060361 -2.4145184 0.3524234
0.58159673 -2.3826323 0.35828501
0.16668651 -2.4362857 0.36723599
0.17230113 -2.4346001 0.36378393
0.24078515 -2.4215107 0.36781809
0.27815431 -2.4252155 0.3659634
0.57518971 -2.3811035 0.36878556
-0.26572862 -2.4855118 0.37144601
0.14939696 -2.4394011 0.37666062
0.20021571 -2.4312286 0.37178743
0.18770631 -2.4227121 0.37798902
0.22953381 -2.4277287 0.37760454
0.2356272 -2.429054 0.37337238
0.27199876 -2.4228671 0.37086207
0.29865402 -2.4266479 0.37752408
0.30362904 -2.4181938 0.37065572
0.16979507 -2.4257896 0.38857719
0.18198812 -2.4263654 0.3820025
0.21734282 -2.4270732 0.38598341
0.25455719 -2.4296601 0.38677368
0.26031965 -2.4260743 0.38139445
0.28590855 -2.422935 0.3880392
0.57178998 -2.3930774 0.38114041
0.16448681 -2.4383507 0.39352694
0.20556679 -2.4343374 0.39502326
0.21200447 -2.4366195 0.39140722
0.19860138 -2.4261446 0.39764425
0.23483115 -2.420769 0.39934844
0.24790566 -2.4253757 0.39090782
0.27319315 -2.4222062 0.39847815
0.27914214 -2.4186335 0.39274612
0.31195346 -2.4166925 0.39282334
0.64059937 -2.3804798 0.3923502
0.14585884 -2.441499 0.40273657
0.19348043 -2.4416289 0.40361643
0.13925576 -2.4372911 0.4047848
0.18642594 -2.433449 0.4059768
0.22287308 -2.4309642 0.40949562
0.22866848 -2.4234009 0.40410823
0.2663959 -2.4189045 0.40306824
0.16749161 -2.4424794 0.41730186
0.18030146 -2.438097 0.41011852
0.17305504 -2.4279568 0.41190156
0.24763517 -2.4287121 0.41906491
0.25384489 -2.4241242 0.4136472
0.29356691 -2.4253817 0.41120899
0.28547165 -2.4132435 0.4147723
0.57699716 -2.3898792 0.41435319
0.14763284 -2.4456425 0.42660782
0.16077167 -2.4412272 0.42017704
0.18977302 -2.4353991 0.4295381
0.19669238 -2.4366658 0.42612582
0.20315503 -2.4330149 0.42181167
0.27360886 -2.428257 0.42761579
0.28038678 -2.4276175 0.42232507
0.23314385 -2.4192286 0.42658904
0.31328937 -2.4185526 0.42185172
0.59524137 -2.3865898 0.42665905
0.13385201 -2.4421868 0.43128276
0.18324706 -2.440047 0.43375844
0.17551325 -2.4289441 0.43531877
0.22679211 -2.4248216 0.43178663
0.26632079 -2.4249778 0.43214351
0.2931982 -2.4253213 0.43995848
0.25866193 -2.4187615 0.43604463
0.29959661 -2.4197903 0.43351671
0.58744568 -2.3841581 0.43714485
0.61226988 -2.3783193 0.43814495
0.15557486 -2.4458928 0.44729745
0.2070812 -2.4406574 0.44651502
0.14782465 -2.4357958 0.44843102
0.16562811 -2.4374132 0.44142866
0.21397154 -2.4379942 0.44215459
0.24597956 -2.4338362 0.44795129
0.28576753 -2.4230211 0.44498017
0.13409694 -2.4471288 0.45550549
0.18530467 -2.4398341 0.45731065
0.23870206 -2.4335313 0.45241523
0.27486435 -2.4230156 0.45280132
0.31356171 -2.4241562 0.45204902
0.23006251 -2.4194903 0.45440164
0.63196641 -2.3803658 0.45143041
0.65723854 -2.3741391 0.45132446
0.16313781 -2.4400442 0.46699965
0.15532193 -2.4348805 0.46902966
0.20902926 -2.4333596 0.4690192
0.25721863 -2.4315348 0.46665618
0.26475617 -2.4318449 0.4618606
0.21587068 -2.4257855 0.46376535
0.24861181 -2.4214323 0.46957943
0.45297241 -2.4025211 0.46868998
0.57522756 -2.3956282 0.46054673
0.62541604 -2.3846254 0.46373197
0.14838454 -2.4444699 0.47348833
0.18594021 -2.4305952 0.47947037
0.20184034 -2.437995 0.47363186
0.24115545 -2.4230957 0.47441381
0.27544102 -2.4215226 0.47895995
0.17453985 -2.4336495 0.48497152
0.2257348 -2.4235027 0.48312479
0.30366802 -2.4243631 0.48751307
0.31197554 -2.4276209 0.48240909
0.14758494 -2.4431071 0.49701729
0.15542758 -2.4413807 0.4939428
0.13515939 -2.4353981 0.4994064
0.16295552 -2.4357321 0.49000278
0.21114686 -2.4366736 0.49358976
0.25290117 -2.4323559 0.49560365
0.26040941 -2.4277599 0.49001345
0.28800043 -2.4276328 0.49905923
0.18730882 -2.4407938 0.50532889
0.1786177 -2.4336853 0.50732613
0.19474815 -2.4322288 0.5002206
0.22831194 -2.4305332 0.50855458
0.23672993 -2.4327645 0.50470394
0.27946693 -2.4243972 0.50368357
0.56955498 -2.3974109 0.5068388
0.63055342 -2.3940108 0.5022378
0.65485412 -2.3827679 0.50222969
0.5917089 -2.3798399 0.50747585
0.15451306 -2.4437454 0.51833981
0.1711515 -2.4442201 0.51252103
0.16239944 -2.4371212 0.51419055
0.22028325 -2.4331982 0.51318282
0.25535157 -2.4323056 0.51997912
0.2720646 -2.4319081 0.51020086
0.26316947 -2.426734 0.51412815
0.30715042 -2.418237 0.51071036
0.5844081 -2.3851078 0.51930207
0.61802512 -2.3783212 0.5105589
0.13776779 -2.4442675 0.52371019
0.14607359 -2.4425347 0.52081895
0.20406878 -2.4395239 0.52217865
0.24732426 -2.4369075 0.52549648
0.19447906 -2.4255772 0.52307588
0.17855717 -2.4407377 0.53286797
0.16498804 -2.4320688 0.53577024
0.22105317 -2.433176 0.53760308
0.26581565 -2.4313631 0.53965914
0.21159339 -2.4251099 0.53990549
0.22904421 -2.4256272 0.53197074
0.57780337 -2.3942015 0.53179944
0.6547187 -2.3775029 0.53922707
0.14361443 -2.4388342 0.54409981
0.20399654 -2.4395034 0.54663241
0.29449132 -2.4307892 0.54904509
0.19422281 -2.4285185 0.54797882
0.25653961 -2.4271882 0.54358262
0.30190569 -2.4184442 0.54102796
0.27508587 -2.4195223 0.55709392
-0.28264222 -2.4769347 0.56534433
0.14986302 -2.440052 0.56589121
0.15921454 -2.4432042 0.56380099
0.1684127 -2.4444075 0.56111854
0.22158425 -2.4388039 0.56344247
0.20234427 -2.4295423 0.56913596
0.21151306 -2.4288116 0.56523645
0.25686264 -2.4209218 0.56709218
0.26643869 -2.4241083 0.56301063
0.44719291 -2.3972991 0.56741577
0.57697982 -2.3951364 0.56873232
0.18397109 -2.4329672 0.57683921
0.2487175 -2.4323266 0.57416028
0.29567814 -2.424299 0.57277542
0.15625238 -2.4430089 0.58817357
0.16508099 -2.432512 0.58298934
0.220287 -2.4325426 0.58695269
0.2303163 -2.4376512 0.58401388
0.27743119 -2.4305375 0.58458465
0.5938465 -2.3938494 0.58446074
0.62179679 -2.3965411 0.58997923
0.19144998 -2.4347494 0.5985595
0.2585665 -2.4348602 0.59528154
0.20064551 -2.4281747 0.59355515
0.24786583 -2.4258718 0.59782529
0.29668683 -2.4224784 0.59771943
0.58409142 -2.3943899 0.59531015
0.17165585 -2.4323537 0.60449469
0.2386792 -2.4324138 0.60371572
0.16150913 -2.4282448 0.60650599
0.28724444 -2.4260795 0.60384429
0.27648386 -2.4190373 0.60732162
0.44361296 -2.4048209 0.60325921
0.2090067 -2.4355762 0.61652738
0.21856326 -2.4299889 0.61138791
0.26676002 -2.4216824 0.61285257
0.18839011 -2.4312394 0.62260264
0.17788877 -2.4271371 0.62488163
0.24663261 -2.4231172 0.62245274
0.28750458 -2.4279292 0.6299175
0.2360795 -2.4199703 0.62604052
0.22737117 -2.4371595 0.63433325
0.27750126 -2.431536 0.63588721
0.21597148 -2.4262774 0.63566297
0.26633611 -2.4254892 0.63931024
0.5785138 -2.387377 0.63143891
0.1961372 -2.4403486 0.64644581
0.25676566 -2.4349029 0.64632469
0.20574576 -2.4289541 0.64007741
0.53041869 -2.386806 0.64413881
0.1749507 -2.4418507 0.65338236
0.18564542 -2.4420657 0.65025252
0.22440158 -2.4332311 0.65882444
0.23522021 -2.4334614 0.65478075
0.28709301 -2.4305308 0.65645683
0.5605219 -2.4027083 0.65596414
0.20266801 -2.4337502 0.66654551
0.21377583 -2.4359033 0.66339844
0.43826598 -2.3975837 0.66277051
0.58553052 -2.393784 0.66081554
0.61059898 -2.3837504 0.66466403
0.19235662 -2.4422269 0.67220384
0.25457785 -2.433655 0.67182553
0.23170131 -2.4274123 0.67888027
0.57425958 -2.3934205 0.67122138
0.64062917 -2.391351 0.67244899
0.22107793 -2.4339342 0.68460524
0.20942593 -2.4298611 0.68734425
0.26185614 -2.4209025 0.68983996
0.56304133 -2.3940086 0.68166685
0.1987702 -2.438319 0.69318169
0.25208554 -2.4370134 0.6987164
0.61501521 -2.3812411 0.69243401
0.24002041 -2.4319813 0.70173681
0.28231692 -2.4216545 0.70651972
0.64650571 -2.3932486 0.70184654
0.63032401 -2.3770139 0.70885062
0.21737076 -2.439234 0.71179593
0.25984943 -2.4317403 0.71894205
0.19297892 -2.4292009 0.71625423
0.55682653 -2.4026654 0.72259504
0.618671 -2.3785264 0.72054523
0.21191311 -2.4337513 0.73617023
0.27928713 -2.4217198 0.73298317
0.53022546 -2.3935666 0.73957151
0.63467383 -2.3778098 0.73831826
0.20025365 -2.4402573 0.74162424
0.24253628 -2.422014 0.74692482
0.55691856 -2.3917193 0.74828368
0.2184045 -2.430202 0.75740266
0.28927591 -2.4322879 0.75770622
0.2308387 -2.4294529 0.75324601
0.27619737 -2.4282498 0.76152992
0.59714431 -2.3805315 0.77238333
0.28482789 -2.4299908 0.78401309
0.24589062 -2.4350648 0.7995711
0.21950015 -2.4384689 0.80874479
0.23300704 -2.4396181 0.80516541
0.27890816 -2.4218009 0.8085801
0.26683497 -2.4348693 0.81749338
0.58818305 -2.3919411 0.81648391
0.2530736 -2.4337177 0.82167798
0.23851401 -2.4249835 0.82317787
0.5722692 -2.3833005 0.82406676
0.22582434 -2.436168 0.83079988
0.55886525 -2.3857944 0.83500409
0.42599255 -2.4057915 0.84090811
0.63314891 -2.3950639 0.84585416
0.23170544 -2.4289253 0.85130966
0.57596332 -2.3984489 0.85942268
0.28190786 -2.4305615 0.86126816
0.26664791 -2.4228225 0.86345541
0.42284599 -2.405946 0.86997724
0.51751888 -2.393322 0.86636543
0.25326079 -2.4329979 0.87141246
0.58785146 -2.3886733 0.87640071
0.5737654 -2.392082 0.88794893
0.24520545 -2.4317369 0.89838982
0.27532256 -2.4339936 0.89015323
0.51501322 -2.3909204 0.89569849
0.42013523 -2.4133153 0.90185058
0.56074756 -2.4010215 0.90121567
0.54372889 -2.3933992 0.90831029
0.55678821 -2.392607 0.92920953
0.61869717 -2.3969116 0.92045295
0.25761718 -2.422374 0.94167465
0.58704036 -2.3963869 0.94170302
0.58278745 -2.3893709 0.97081703
0.58203489 -2.4002903 1.0072412
0.41163331 -2.4052899 1.01117
0.5000366 -2.3964274 1.0214723
0.57731539 -2.3982337 1.0389106
0.40634799 -2.4154973 1.1005838
0.48099661 -2.3980043 1.2322317
0.5237 -2.4045498 1.3379263
0.47951221 -2.4129443 1.3597351
0.37841618 -2.4141481 1.3629508
0.48830402 -2.4083719 1.3838904
0.57531291 -2.3851571 1.396775
0.46620777 -2.4004872 1.4776375
0.54498929 -2.3920376 1.539632
0.44976434 -2.406728 1.6117713
6.316895 -1.7710164 2.4409554
6.3013768 -1.7793275 2.5627787
6.2359385 -1.7867895 3.3368335
6.2279272 -1.8021871 3.4740129
6.1837506 -1.8006243 4.0402832
6.1248012 -1.805245 4.6424503
1.4318694 -2.3227966 4.7264671
1.6160709 -2.3000298 4.7359586
1.8072515 -2.2821033 4.750062
2.1089528 -2.2362239 4.7778955
2.314203 -2.2211163 4.7852654
2.6467011 -2.1838672 4.8141332
2.9975221 -2.147505 4.8352003
3.5183494 -2.0932231 4.8789983
4.2622318 -2.0188851 4.9370985
4.4306173 -1.9942708 4.9541407
